2694.47826	-187.704548	1031.138681 126 4549
2694.125341	-187.7279314	1031.414804 126 4549
2693.781969	-187.752072	1031.703763 126 4549
2693.686858	-187.7589923	1031.787155 126 4549
2693.534381	-187.7701147	1031.921119 126 4549
2693.383974	-187.7814262	1032.057628 126 4549
2693.290328	-187.7884858	1032.142787 126 4549
2693.079387	-187.8049753	1032.342602 126 4549
2692.872656	-187.8218661	1032.547723 126 4549
2692.771733	-187.8302203	1032.649073 126 4549
2692.552594	-187.8489473	1032.876326 126 4549
2692.338563	-187.86815	1033.109749 126 4549
2692.242921	-187.8769976	1033.217487 126 4549
2691.985085	-187.9011713	1033.511499 126 4549
2691.734692	-187.9261059	1033.815526 126 4549
2691.560062	-187.9442192	1034.037213 126 4549
2691.216007	-187.9816917	1034.495148 126 4549
2690.889933	-188.0208766	1034.973124 126 4549
2690.731548	-188.0409362	1035.217419 126 4549
2690.579366	-188.0612161	1035.464301 126 4549
2690.432055	-188.0820384	1035.716359 126 4549
2690.432023	-188.0820428	1035.716413 126 4551
2690.337793	-188.0953623	1035.877648 126 4551
2690.245713	-188.1087956	1036.040738 126 4551
2690.12819	-188.1266308	1036.257235 126 4551
2690.026654	-188.1427978	1036.452337 126 4551
2689.929097	-188.1590554	1036.648058 126 4551
2689.916445	-188.1611763	1036.673585 126 4551
2689.853166	-188.1718486	1036.802005 126 4551
2689.792089	-188.1824888	1036.929638 126 4551
2689.759987	-188.1881907	1036.998124 126 4551
2689.690023	-188.200952	1037.15023 126 4551
2689.619524	-188.2143902	1037.30926 126 4551
2689.596805	-188.2187905	1037.361162 126 4551
2689.506433	-188.2365352	1037.570142 126 4551
2689.419156	-188.2546629	1037.782361 126 4551
2689.355266	-188.2684356	1037.943846 126 4551
2689.293165	-188.2823764	1038.10739 126 4551
2689.233178	-188.296914	1038.272033 126 4551
2689.233154	-188.2969198	1038.272098 126 4553
2689.173541	-188.3113688	1038.435718 126 4553
2689.117992	-188.3246076	1038.596207 126 4553
2689.063821	-188.3368864	1038.761043 126 4553
2689.233093	-188.2985674	1038.27186 126 4585
2689.311214	-188.2805534	1038.056899 126 4585
2689.393075	-188.261761	1037.843347 126 4585
2689.478447	-188.2410341	1037.633168 126 4585
2689.613653	-188.212841	1037.31657 126 4585
2689.756792	-188.1875762	1037.004648 126 4585
2689.790386	-188.1818729	1036.932954 126 4585
2689.940257	-188.1569942	1036.620018 126 4585
2690.098141	-188.1321836	1036.312679 126 4585
2690.210735	-188.1142232	1036.103329 126 4585
2690.319772	-188.0978809	1035.908845 126 4585
2690.43209	-188.0819132	1035.716599 126 4585
2690.432181	-188.0819004	1035.716444 126 4587
2690.730261	-188.0395256	1035.206255 126 4587
2691.04908	-188.0010083	1034.71581 126 4587
2691.408092	-187.9594379	1034.217095 126 4587
2692.204683	-187.8767792	1033.212558 126 4587
2693.086992	-187.8029783	1032.305526 126 4587
2693.600226	-187.7630585	1031.833711 126 4587
2694.402311	-187.7064736	1031.172753 126 4587
2695.256824	-187.655687	1030.579528 126 4587
2695.546789	-187.6392077	1030.389855 126 4587
2696.137462	-187.6057921	1030.026432 126 4587
2696.748993	-187.5750178	1029.694866 126 4587
2697.060075	-187.5605977	1029.537231 126 4587
2697.909581	-187.5198445	1029.135784 126 4587
2698.795672	-187.4871563	1028.795085 126 4587
2699.347041	-187.4657761	1028.612636 126 4587
2700.120555	-187.4390455	1028.395394 126 4587
2700.920063	-187.415436	1028.22646 126 4587
2701.104702	-187.4101623	1028.190591 126 4587
2701.303619	-187.4045662	1028.154994 126 4587
2701.504322	-187.3986613	1028.122358 126 4587
2701.504875	-187.398645	1028.122268 126 4589
2701.816118	-187.3894904	1028.071668 126 4589
2702.125911	-187.3820887	1028.029165 126 4589
2702.431542	-187.3752218	1027.994955 126 4589
2702.751875	-187.3635592	1027.968589 126 4589
2703.063205	-187.3528482	1027.948526 126 4589
2703.063222	-187.3528479	1027.948525 126 4591
2703.064572	-187.31802	1027.951041 126 4591
2703.065311	-187.278711	1027.954076 126 4591
2703.065623	-187.2397745	1027.957306 126 4591
2703.065491	-187.1324207	1027.9668 126 4591
2703.063246	-187.0215691	1027.978226 126 4591
2703.061715	-186.9671991	1027.984267 126 4591
2703.059348	-186.8992031	1027.992654 126 4591
2703.057129	-186.8424356	1028.000109 126 4591
2703.057038	-186.8401155	1028.000414 126 4593
2703.046744	-186.5767206	1028.035081 126 4593
2703.036908	-186.311489	1028.08174 126 4593
2703.030965	-186.0422283	1028.139169 126 4593
2703.032581	-185.7803025	1028.200841 126 4593
2703.032888	-185.5350683	1028.265435 126 4593
2703.032888	-185.5346265	1028.265551 126 4595
2703.033098	-185.3683529	1028.309353 126 4595
2703.03397	-185.2013083	1028.356321 126 4595
2703.03461	-185.0339539	1028.406295 126 4595
2703.040089	-184.5234554	1028.565956 126 4595
2703.054917	-184.0105201	1028.747405 126 4595
2703.066485	-183.666555	1028.879224 126 4595
2703.094031	-183.0006261	1029.147774 126 4595
2703.126745	-182.3541544	1029.432971 126 4595
2703.143354	-182.0265575	1029.583562 126 4595
2703.160258	-181.719681	1029.732209 126 4595
2703.176246	-181.423576	1029.88368 126 4595
2703.176264	-181.4232387	1029.883852 126 4597
2703.19202	-181.1314388	1030.033128 126 4597
2703.20776	-180.8415591	1030.188912 126 4597
2703.217506	-180.5330471	1030.367577 126 4597
2703.238018	-180.2407862	1030.54608 126 4597
2703.2567	-179.955648	1030.737319 126 4597
2703.256744	-179.9549905	1030.73776 126 4599
2703.26764	-179.7888583	1030.849201 126 4599
2703.282307	-179.6246254	1030.965879 126 4599
2703.290188	-179.4693604	1031.08307 126 4599
2703.28063	-179.3142243	1031.206472 126 4599
2703.28062	-179.3142246	1031.206473 126 4601
2702.905094	-179.3300589	1031.220675 126 4601
2702.554403	-179.3454841	1031.238716 126 4601
2702.194386	-179.3752394	1031.267996 126 4601
2701.853962	-179.4087105	1031.299858 126 4601
2701.491806	-179.449766	1031.343166 126 4601
2701.491437	-179.4498079	1031.34321 126 4603
2701.305419	-179.4708984	1031.365458 126 4603
2701.120179	-179.4937121	1031.389751 126 4603
2700.935833	-179.5182415	1031.4164 126 4603
2700.233651	-179.6184698	1031.526549 126 4603
2699.553081	-179.741418	1031.664646 126 4603
2699.055434	-179.8447539	1031.783433 126 4603
2697.915802	-180.1131536	1032.097274 126 4603
2696.836019	-180.4444498	1032.488052 126 4603
2696.233974	-180.6522858	1032.740284 126 4603
2695.446569	-180.9666021	1033.108061 126 4603
2694.696247	-181.3124753	1033.522961 126 4603
2694.500722	-181.405519	1033.636323 126 4603
2694.115396	-181.5965609	1033.86861 126 4603
2693.741455	-181.7984177	1034.111363 126 4603
2693.556924	-181.9024951	1034.23584 126 4603
2693.013712	-182.2194486	1034.617703 126 4603
2692.496079	-182.5596675	1035.025862 126 4603
2692.164628	-182.7919158	1035.311697 126 4603
2691.596481	-183.2275525	1035.838039 126 4603
2691.07193	-183.6937014	1036.400846 126 4603
2690.850838	-183.9036317	1036.654356 126 4603
2690.638348	-184.1200929	1036.915368 126 4603
2690.435634	-184.3419967	1037.183402 126 4603
2690.435569	-184.3420674	1037.183488 126 4605
2690.262945	-184.5310466	1037.411732 126 4605
2690.107472	-184.7125087	1037.632737 126 4605
2689.952663	-184.8957541	1037.865985 126 4605
2689.809932	-185.089452	1038.09599 126 4605
2689.667951	-185.2975078	1038.332918 126 4605
2689.668653	-185.2964794	1038.331747 126 4607
2689.662545	-185.3209493	1038.33 126 4607
2689.653707	-185.3550909	1038.328592 126 4607
2689.647127	-185.3800713	1038.328017 126 4607
2689.646753	-185.3814911	1038.327986 126 4609
2689.571184	-185.6680405	1038.321717 126 4609
2689.490317	-185.9538195	1038.346473 126 4609
2689.407776	-186.2371264	1038.401703 126 4609
2689.330465	-186.5246416	1038.470754 126 4609
2689.33035	-186.5250689	1038.470857 126 4611
2689.262101	-186.7789034	1038.531833 126 4611
2689.195649	-187.0424758	1038.607248 126 4611
2689.144479	-187.3124928	1038.673077 126 4611
2689.111688	-187.583071	1038.711946 126 4611
2689.111633	-187.5835273	1038.712011 126 4613
2689.080178	-187.8431997	1038.749303 126 4613
2689.064405	-188.1013476	1038.777989 126 4613
2689.063946	-188.3334716	1038.761713 126 4613
2689.064065	-188.3334501	1038.761351 126 4615
2689.117551	-188.3237566	1038.598295 126 4615
2689.172977	-188.312431	1038.437298 126 4615
2689.232868	-188.2986192	1038.272478 126 4615
2703.258255	-170.4448702	1038.334486 126 4659
2702.480699	-170.395957	1038.422696 126 4659
2701.692412	-170.4228622	1038.516198 126 4659
2700.897417	-170.5227465	1038.623436 126 4659
2700.108673	-170.6883619	1038.75035 126 4659
2700.108354	-170.6884297	1038.750401 126 4661
2699.502315	-170.8173341	1038.846608 126 4661
2698.911287	-171.0018374	1038.93389 126 4661
2698.332019	-171.2764854	1038.987487 126 4661
2697.799956	-171.6293143	1038.99241 126 4661
2697.314683	-172.0746877	1038.928497 126 4661
2697.314314	-172.0750266	1038.928449 126 4663
2697.010322	-172.3554111	1038.887312 126 4663
2696.724934	-172.6470781	1038.83961 126 4663
2696.452384	-172.9490594	1038.78574 126 4663
2696.180821	-173.2642755	1038.732948 126 4663
2696.180761	-173.264344	1038.732937 126 4665
2695.50402	-174.0498703	1038.601381 126 4665
2694.849743	-174.8500497	1038.513592 126 4665
2694.211467	-175.6833493	1038.461353 126 4665
2693.612639	-176.5372527	1038.437752 126 4665
2693.05255	-177.417448	1038.430915 126 4665
2693.052497	-177.4175313	1038.430914 126 4667
2692.070585	-178.9606431	1038.418931 126 4667
2691.23901	-180.5629677	1038.457607 126 4667
2690.566016	-182.2363743	1038.474184 126 4667
2690.033177	-183.987373	1038.404398 126 4667
2690.033106	-183.9876043	1038.404388 126 4669
2689.956153	-184.2404948	1038.394308 126 4669
2689.873724	-184.5217874	1038.382558 126 4669
2689.804227	-184.7691891	1038.370378 126 4669
2689.730195	-185.0437546	1038.357285 126 4669
2689.667941	-185.2938398	1038.336154 126 4669
2689.66795	-185.2938274	1038.336139 126 4671
2689.839226	-185.0495225	1038.042293 126 4671
2690.024581	-184.805127	1037.753599 126 4671
2690.223592	-184.5724732	1037.464949 126 4671
2690.435641	-184.3413675	1037.183927 126 4671
2690.435641	-184.3413675	1037.183927 126 4673
2690.6118	-184.1494061	1036.950444 126 4673
2690.79645	-183.9593401	1036.7213 126 4673
2690.989803	-183.7707975	1036.49668 126 4673
2691.39266	-183.4060067	1036.052141 126 4673
2691.827464	-183.0531033	1035.626738 126 4673
2692.052748	-182.879698	1035.419097 126 4673
2692.751351	-182.376628	1034.807042 126 4673
2693.513703	-181.9072572	1034.245731 126 4673
2694.049658	-181.6147739	1033.891611 126 4673
2695.167067	-181.0682285	1033.234588 126 4673
2696.364577	-180.6051279	1032.681922 126 4673
2696.98	-180.3955165	1032.432757 126 4673
2697.922136	-180.1151559	1032.101716 126 4673
2698.885296	-179.8856198	1031.834678 126 4673
2699.20938	-179.8148016	1031.752698 126 4673
2699.694037	-179.7172118	1031.641044 126 4673
2700.184157	-179.6319478	1031.544842 126 4673
2700.347372	-179.605176	1031.514708 126 4673
2700.673122	-179.5542978	1031.45798 126 4673
2701.000106	-179.5085557	1031.408102 126 4673
2701.164803	-179.4871436	1031.384937 126 4673
2701.328155	-179.4672294	1031.363691 126 4673
2701.491413	-179.448611	1031.344153 126 4673
2701.491413	-179.448611	1031.344153 126 4675
2701.941	-179.3973393	1031.29035 126 4675
2702.389525	-179.3555351	1031.249603 126 4675
2702.844385	-179.3277513	1031.225139 126 4675
2703.283507	-179.309932	1031.210114 126 4675
2703.283506	-179.3097182	1031.210285 126 4677
2703.281844	-178.8657392	1031.566855 126 4677
2703.284746	-178.4231394	1031.922932 126 4677
2703.280475	-177.979773	1032.279004 126 4677
2703.277601	-177.0932881	1032.991435 126 4677
2703.27498	-176.2068391	1033.70386 126 4677
2703.273532	-175.7636123	1034.060061 126 4677
2703.269427	-174.4339368	1035.12868 126 4677
2703.26526	-173.1042403	1036.197308 126 4677
2703.261319	-172.2190841	1036.908447 126 4677
2703.259536	-171.3310628	1037.622398 126 4677
2703.258303	-170.4448635	1038.334488 126 4677
2704.187969	-162.2317348	1041.374753 126 4709
2703.644379	-162.1962128	1041.438883 126 4709
2703.099948	-162.1977338	1041.5013 126 4709
2702.556177	-162.2320447	1041.562051 126 4709
2701.473132	-162.3578606	1041.680261 126 4709
2700.404397	-162.5813716	1041.792079 126 4709
2699.876112	-162.7135055	1041.846294 126 4709
2699.08369	-162.9360775	1041.926449 126 4709
2698.30166	-163.1923807	1042.003774 126 4709
2698.049978	-163.2787856	1042.028469 126 4709
2697.525964	-163.4661113	1042.079526 126 4709
2697.007005	-163.6670691	1042.129342 126 4709
2696.752393	-163.7695612	1042.153594 126 4709
2695.997608	-164.0867963	1042.22483 126 4709
2695.257864	-164.4418851	1042.292458 126 4709
2694.768022	-164.6991362	1042.336149 126 4709
2693.82248	-165.2465791	1042.417961 126 4709
2692.931399	-165.887233	1042.488855 126 4709
2692.506314	-166.2327443	1042.520688 126 4709
2692.10641	-166.6077322	1042.548148 126 4709
2691.739018	-167.0131188	1042.570351 126 4709
2691.739619	-167.0136702	1042.570254 126 4711
2692.051313	-167.2995299	1042.520057 126 4711
2692.363031	-167.5822401	1042.452362 126 4711
2692.673412	-167.8625808	1042.367005 126 4711
2693.285786	-168.4168042	1042.162603 126 4711
2693.874766	-168.9673399	1041.888919 126 4711
2694.16367	-169.2402922	1041.735008 126 4711
2694.729544	-169.7774496	1041.394659 126 4711
2695.275129	-170.2919926	1040.989876 126 4711
2695.543108	-170.542178	1040.772047 126 4711
2696.070621	-171.0247736	1040.306935 126 4711
2696.58367	-171.4652892	1039.786596 126 4711
2696.836183	-171.67597	1039.513138 126 4711
2697.080081	-171.8788635	1039.227149 126 4711
2697.31438	-172.074798	1038.928619 126 4711
2697.314902	-172.074868	1038.928248 126 4713
2697.540928	-171.8594998	1038.96441 126 4713
2697.788572	-171.6623773	1038.980357 126 4713
2698.052865	-171.4843996	1038.980177 126 4713
2698.605388	-171.1717442	1038.952047 126 4713
2699.194085	-170.9360661	1038.884781 126 4713
2699.494601	-170.8346047	1038.846024 126 4713
2699.800466	-170.7552177	1038.798293 126 4713
2700.108353	-170.6883199	1038.750542 126 4713
2700.108353	-170.6883199	1038.750542 126 4715
2700.727044	-170.5538903	1038.654587 126 4715
2701.35306	-170.4675776	1038.560446 126 4715
2701.988722	-170.404236	1038.487863 126 4715
2702.624998	-170.4036869	1038.407409 126 4715
2703.258271	-170.444778	1038.33458 126 4715
2703.258335	-170.4447822	1038.334573 126 4717
2703.550242	-168.7061188	1039.713365 126 4717
2703.804492	-166.6716477	1040.728885 126 4717
2704.022292	-164.4614515	1041.285186 126 4717
2704.188056	-162.2317409	1041.374743 126 4717
2694.72426	-295.8909667	1035.841732 126 4739
2694.761508	-295.2799927	1035.759084 126 4739
2694.765702	-294.6628926	1035.684385 126 4739
2694.733065	-294.0420626	1035.618148 126 4739
2694.587623	-292.8457486	1035.514443 126 4739
2694.266701	-291.6976553	1035.473569 126 4739
2694.06694	-291.1611802	1035.471365 126 4739
2693.587787	-290.1714315	1035.505155 126 4739
2692.943955	-289.3264564	1035.61652 126 4739
2692.592923	-288.9562455	1035.690013 126 4739
2692.081547	-288.5249074	1035.813264 126 4739
2691.518019	-288.1797766	1035.970734 126 4739
2691.374846	-288.0993856	1036.011998 126 4739
2691.228468	-288.0244043	1036.055481 126 4739
2691.079656	-287.9551442	1036.100994 126 4739
2691.079656	-287.9551435	1036.100993 126 4741
2691.005288	-288.1178437	1036.347083 126 4741
2690.930926	-288.2805378	1036.593169 126 4741
2690.85657	-288.4432268	1036.839254 126 4741
2690.690642	-288.8062899	1037.388438 126 4741
2690.524733	-289.1693493	1037.937646 126 4741
2690.433174	-289.3697212	1038.240762 126 4741
2690.341623	-289.5700874	1038.543878 126 4741
2690.250081	-289.7704469	1038.846993 126 4741
2690.25008	-289.7704478	1038.846995 126 4743
2692.025159	-290.8935981	1038.640407 126 4743
2693.491944	-292.4421874	1038.059498 126 4743
2694.387669	-294.2420236	1037.140089 126 4743
2694.663031	-296.0249963	1036.044538 126 4743
2694.663031	-296.0249963	1036.044538 126 4745
2694.675277	-295.9981906	1036.003977 126 4745
2694.687522	-295.9713848	1035.963416 126 4745
2694.699768	-295.9445789	1035.922854 126 4745
2694.712014	-295.9177729	1035.882293 126 4745
2694.72426	-295.8909667	1035.841732 126 4745
2693.427583	-283.2123682	1033.448638 126 4765
2693.341063	-283.1499819	1033.463956 126 4765
2693.253451	-283.0865965	1033.479483 126 4765
2693.164663	-283.0221457	1033.495233 126 4765
2692.99175	-282.896204	1033.525935 126 4765
2692.822422	-282.7720213	1033.55606 126 4765
2692.736961	-282.7091428	1033.571278 126 4765
2692.482232	-282.5210688	1033.616684 126 4765
2692.228988	-282.3321512	1033.661959 126 4765
2692.060882	-282.205865	1033.692074 126 4765
2691.893563	-282.0792734	1033.722111 126 4765
2691.727103	-281.9524191	1033.752056 126 4765
2691.727103	-281.9524188	1033.752056 126 4767
2690.875289	-283.3549432	1033.746818 126 4767
2690.095992	-284.8067107	1034.256192 126 4767
2689.52602	-286.0792435	1035.271173 126 4767
2689.220043	-287.0143591	1036.584423 126 4767
2689.220046	-287.0143605	1036.584423 126 4769
2689.404228	-287.105666	1036.534434 126 4769
2689.5888	-287.1976481	1036.484882 126 4769
2689.773692	-287.2902643	1036.435781 126 4769
2690.051413	-287.4300829	1036.362816 126 4769
2690.329574	-287.5711591	1036.290903 126 4769
2690.422763	-287.6185393	1036.266943 126 4769
2690.607157	-287.7125057	1036.219774 126 4769
2690.794925	-287.8086563	1036.172265 126 4769
2690.891208	-287.8580772	1036.148036 126 4769
2690.986087	-287.906891	1036.124287 126 4769
2691.079656	-287.9551429	1036.100993 126 4769
2691.079656	-287.9551429	1036.100993 126 4771
2691.368918	-287.0806754	1034.870297 126 4771
2691.903684	-285.889038	1033.919158 126 4771
2692.632606	-284.5280272	1033.442753 126 4771
2693.427583	-283.2123682	1033.448638 126 4771
2693.427582	-283.21237	1033.448638 126 4791
2692.635922	-284.5299801	1033.4422 126 4791
2691.90471	-285.8896484	1033.918957 126 4791
2691.365907	-287.0789068	1034.870799 126 4791
2691.079656	-287.9551445	1036.100995 126 4791
2691.079656	-287.9551445	1036.100995 126 4793
2691.473242	-288.1383275	1035.980618 126 4793
2691.849769	-288.3615105	1035.874452 126 4793
2692.200301	-288.6209202	1035.784245 126 4793
2692.855044	-289.2131576	1035.632238 126 4793
2693.401355	-289.9364629	1035.538647 126 4793
2693.645176	-290.327764	1035.506323 126 4793
2694.283217	-291.5743986	1035.451586 126 4793
2694.642992	-292.9906747	1035.514553 126 4793
2694.759953	-293.9662719	1035.602814 126 4793
2694.782474	-294.9361	1035.712565 126 4793
2694.724259	-295.8909665	1035.841732 126 4793
2694.724259	-295.890966	1035.841732 126 4795
2695.191355	-295.7597835	1034.226052 126 4795
2696.296366	-295.6420661	1032.785815 126 4795
2697.898802	-295.5708614	1031.927724 126 4795
2699.573464	-295.5525949	1031.725285 126 4795
2699.573464	-295.552595	1031.725285 126 4797
2699.571445	-292.8732385	1031.941831 126 4797
2699.06498	-290.0677002	1032.228166 126 4797
2697.827284	-287.2003441	1032.605152 126 4797
2695.886787	-284.9071589	1033.019314 126 4797
2693.427582	-283.21237	1033.448638 126 4797
2699.596078	-323.2413982	1029.406043 126 4817
2699.587953	-314.0045816	1030.206435 126 4817
2699.580423	-304.7813255	1030.979419 126 4817
2699.573465	-295.5525956	1031.725285 126 4817
2699.573465	-295.5525956	1031.725285 126 4819
2697.898802	-295.5708622	1031.927724 126 4819
2696.296367	-295.642067	1032.785815 126 4819
2695.191355	-295.7597843	1034.226052 126 4819
2694.72426	-295.8909668	1035.841732 126 4819
2694.72426	-295.8909668	1035.841732 126 4821
2694.733734	-305.128366	1035.098168 126 4821
2694.743928	-314.36012	1034.327641 126 4821
2694.754896	-323.6052659	1033.529859 126 4821
2694.754896	-323.6052659	1033.529859 126 4823
2695.218819	-323.4645619	1031.914044 126 4823
2696.321018	-323.3381236	1030.472359 126 4823
2697.921794	-323.2614039	1029.611596 126 4823
2699.596078	-323.2413982	1029.406043 126 4823
2692.009437	-259.3555281	1035.407256 126 4843
2693.566859	-259.3543643	1035.221097 126 4843
2695.124236	-259.3531955	1035.035005 126 4843
2696.688042	-259.3520191	1034.848212 126 4843
2700.147151	-259.3494405	1034.43516 126 4843
2703.649745	-259.3468877	1034.01722 126 4843
2705.477585	-259.3455696	1033.799202 126 4843
2709.353096	-259.3428012	1033.337134 126 4843
2713.298845	-259.3400373	1032.867084 126 4843
2715.171045	-259.3387381	1032.644143 126 4843
2717.653916	-259.3370319	1032.348606 126 4843
2720.152161	-259.3353355	1032.051399 126 4843
2720.641117	-259.3350043	1031.993236 126 4843
2721.636935	-259.3343312	1031.874792 126 4843
2722.613781	-259.3336739	1031.758629 126 4843
2723.059688	-259.3333744	1031.705608 126 4843
2723.794072	-259.3328823	1031.618296 126 4843
2724.544912	-259.3323807	1031.529042 126 4843
2724.743933	-259.3322479	1031.505385 126 4843
2725.249159	-259.3319109	1031.445333 126 4843
2725.754596	-259.3315746	1031.385263 126 4843
2726.001407	-259.3314105	1031.355931 126 4843
2726.741987	-259.3309186	1031.267924 126 4843
2727.483016	-259.3304278	1031.179877 126 4843
2727.977231	-259.3301011	1031.121162 126 4843
2738.491022	-259.3231645	1029.872213 126 4843
2749.092583	-259.3164509	1028.615661 126 4843
2759.249637	-259.310239	1027.414379 126 4843
2769.474521	-259.3042167	1026.207468 126 4843
2779.695659	-259.2983902	1025.003772 126 4843
2779.695659	-259.2983902	1025.003772 126 4845
2779.684396	-258.6275918	1025.056698 126 4845
2779.722154	-257.9640872	1025.265343 126 4845
2779.810533	-257.3758283	1025.626656 126 4845
2779.936017	-256.9050854	1026.091094 126 4845
2779.936024	-256.905059	1026.09112 126 4847
2770.966141	-256.9096843	1027.146439 126 4847
2761.993495	-256.9144397	1028.20419 126 4847
2753.00118	-256.9193798	1029.266115 126 4847
2742.896733	-256.925125	1030.461563 126 4847
2732.80182	-256.9311115	1031.658403 126 4847
2731.680275	-256.9317797	1031.791403 126 4847
2729.998104	-256.9327866	1031.990933 126 4847
2728.316097	-256.9338006	1032.190514 126 4847
2727.755443	-256.9341394	1032.257047 126 4847
2726.914479	-256.9346488	1032.356856 126 4847
2726.073531	-256.93516	1032.456681 126 4847
2725.793216	-256.9353307	1032.489958 126 4847
2725.232587	-256.9356723	1032.556516 126 4847
2724.671958	-256.9360148	1032.623081 126 4847
2724.396196	-256.9361834	1032.655825 126 4847
2723.855723	-256.9365142	1032.720004 126 4847
2723.328406	-256.9368374	1032.782629 126 4847
2723.066152	-256.9369983	1032.813776 126 4847
2722.537134	-256.9373232	1032.87661 126 4847
2721.993316	-256.9376579	1032.941209 126 4847
2721.714922	-256.9378294	1032.974281 126 4847
2720.876125	-256.9383466	1033.073931 126 4847
2720.038866	-256.9388639	1033.173416 126 4847
2719.481531	-256.9392087	1033.239647 126 4847
2717.812484	-256.9402425	1033.438013 126 4847
2716.153415	-256.9412742	1033.635263 126 4847
2715.052867	-256.9419605	1033.766139 126 4847
2711.773143	-256.9440134	1034.156251 126 4847
2708.561101	-256.9460515	1034.538575 126 4847
2706.453227	-256.9474061	1034.789584 126 4847
2702.290619	-256.950126	1035.285487 126 4847
2698.206714	-256.952877	1035.772429 126 4847
2696.175426	-256.9542691	1036.014725 126 4847
2694.156945	-256.9556496	1036.255605 126 4847
2692.138403	-256.9570204	1036.496593 126 4847
2692.138403	-256.9570237	1036.49659 126 4849
2692.082064	-257.4328844	1036.023216 126 4849
2692.039216	-258.0225839	1035.662199 126 4849
2692.01481	-258.6836809	1035.455139 126 4849
2692.009438	-259.3555282	1035.407256 126 4849
2694.754896	-323.6052659	1033.529859 126 4869
2694.743928	-314.36012	1034.327641 126 4869
2694.733734	-305.128366	1035.098168 126 4869
2694.72426	-295.8909668	1035.841732 126 4869
2694.72426	-295.8909668	1035.841732 126 4871
2694.70385	-295.9356437	1035.909334 126 4871
2694.68344	-295.9803202	1035.976936 126 4871
2694.663031	-296.0249963	1036.044538 126 4871
2694.663031	-296.0249963	1036.044538 126 4873
2694.46965	-304.7379695	1036.047661 126 4873
2694.271303	-313.4524404	1036.050688 126 4873
2694.068698	-322.1682938	1036.053604 126 4873
2694.068698	-322.1682938	1036.053604 126 4875
2694.297178	-322.6466839	1035.213736 126 4875
2694.52574	-323.1253144	1034.37312 126 4875
2694.754896	-323.6052659	1033.529859 126 4875
2699.373338	-325.957388	1029.197864 126 4895
2699.527753	-325.0481137	1029.257892 126 4895
2699.59686	-324.1360429	1029.328521 126 4895
2699.596075	-323.2413983	1029.406044 126 4895
2699.596075	-323.2413897	1029.406045 126 4897
2697.921791	-323.2613935	1029.611597 126 4897
2696.321015	-323.3381113	1030.47236 126 4897
2695.218816	-323.4645479	1031.914044 126 4897
2694.754893	-323.6052507	1033.529859 126 4897
2694.754891	-323.6052683	1033.529864 126 4899
2694.806185	-324.2093744	1033.300312 126 4899
2694.817218	-324.820364	1033.079667 126 4899
2694.777768	-325.4231094	1032.876212 126 4899
2694.777768	-325.4231094	1032.876212 126 4901
2695.331877	-325.4210698	1031.427216 126 4901
2696.401224	-325.5188441	1030.169666 126 4901
2697.855519	-325.7144666	1029.407265 126 4901
2699.373338	-325.957388	1029.197864 126 4901
2692.029924	-364.5678398	1027.558103 126 4921
2693.519069	-364.5652274	1027.368632 126 4921
2694.999032	-364.5626082	1027.180345 126 4921
2696.469961	-364.5599802	1026.993236 126 4921
2699.019346	-364.5553975	1026.66903 126 4921
2701.567679	-364.5508104	1026.345187 126 4921
2702.651928	-364.5488644	1026.207452 126 4921
2704.813566	-364.5450077	1025.932976 126 4921
2706.989249	-364.5411584	1025.656962 126 4921
2708.140339	-364.5391284	1025.510999 126 4921
2710.701781	-364.5346185	1025.186347 126 4921
2713.285509	-364.5300868	1024.85922 126 4921
2714.779729	-364.527471	1024.670154 126 4921
2718.388995	-364.521172	1024.213754 126 4921
2722.047695	-364.5148522	1023.751801 126 4921
2724.250345	-364.51108	1023.47394 126 4921
2726.516597	-364.507243	1023.188317 126 4921
2728.787074	-364.5034357	1022.902432 126 4921
2729.269633	-364.5026274	1022.841678 126 4921
2729.555529	-364.5021491	1022.805687 126 4921
2729.845429	-364.5016643	1022.769198 126 4921
2730.035497	-364.5013462	1022.745276 126 4921
2730.480698	-364.5006011	1022.689251 126 4921
2730.958222	-364.4998024	1022.62917 126 4921
2731.233526	-364.4993424	1022.594537 126 4921
2731.950693	-364.4981465	1022.504324 126 4921
2732.685619	-364.4969272	1022.411899 126 4921
2733.147309	-364.4961641	1022.353845 126 4921
2733.743781	-364.4951814	1022.278854 126 4921
2734.297719	-364.4942701	1022.209228 126 4921
2734.446558	-364.4940253	1022.190521 126 4921
2734.739211	-364.4935439	1022.153742 126 4921
2735.018209	-364.4930847	1022.118685 126 4921
2735.140377	-364.4928835	1022.103335 126 4921
2744.811565	-364.4769676	1020.888264 126 4921
2754.48289	-364.4615947	1019.678112 126 4921
2764.015858	-364.4471485	1018.490181 126 4921
2773.553062	-364.4333536	1017.306242 126 4921
2783.090572	-364.4202187	1016.127055 126 4921
2783.094704	-364.420213	1016.126544 126 4921
2783.098836	-364.4202073	1016.126033 126 4921
2783.102968	-364.4202016	1016.125522 126 4921
2783.102955	-364.4201505	1016.125487 126 4923
2782.955575	-363.880083	1015.759231 126 4923
2782.839323	-363.2431299	1015.51049 126 4923
2782.769343	-362.5495108	1015.421106 126 4923
2782.750624	-361.8700745	1015.491919 126 4923
2782.750624	-361.8700745	1015.491919 126 4925
2778.097532	-361.876692	1016.066451 126 4925
2773.444516	-361.8834713	1016.642094 126 4925
2768.819031	-361.8903962	1017.215416 126 4925
2759.604666	-361.9045247	1018.359647 126 4925
2750.414225	-361.919225	1019.505229 126 4925
2745.809785	-361.926726	1020.080258 126 4925
2740.958867	-361.9347563	1020.687253 126 4925
2736.096405	-361.9429609	1021.296926 126 4925
2735.864907	-361.9433519	1021.325954 126 4925
2735.549483	-361.9438851	1021.365511 126 4925
2735.234006	-361.944419	1021.405079 126 4925
2735.183618	-361.9445043	1021.411399 126 4925
2735.005543	-361.9448059	1021.433735 126 4925
2734.827324	-361.945108	1021.456091 126 4925
2734.757434	-361.9452266	1021.464859 126 4925
2734.56418	-361.9455547	1021.489102 126 4925
2734.367784	-361.9458886	1021.513742 126 4925
2734.271752	-361.9460521	1021.52579 126 4925
2733.979375	-361.9465499	1021.562475 126 4925
2733.681351	-361.9470582	1021.599872 126 4925
2733.491721	-361.9473819	1021.62367 126 4925
2732.919513	-361.948359	1021.695484 126 4925
2732.337748	-361.9493533	1021.768516 126 4925
2732.18886	-361.9496079	1021.787209 126 4925
2731.489694	-361.9508033	1021.874999 126 4925
2730.799825	-361.9519841	1021.961647 126 4925
2730.475294	-361.9525401	1022.002414 126 4925
2730.09229	-361.9531976	1022.050533 126 4925
2729.72048	-361.9538379	1022.097252 126 4925
2729.650966	-361.9539577	1022.105987 126 4925
2729.547005	-361.9541369	1022.119051 126 4925
2729.443587	-361.9543154	1022.132047 126 4925
2729.409476	-361.9543742	1022.136333 126 4925
2729.342075	-361.9544906	1022.144804 126 4925
2729.262681	-361.9546277	1022.154782 126 4925
2729.217014	-361.9547066	1022.160521 126 4925
2729.085212	-361.9549344	1022.177086 126 4925
2728.947674	-361.9551722	1022.194373 126 4925
2728.866946	-361.9553118	1022.204519 126 4925
2728.729065	-361.9555503	1022.22185 126 4925
2728.601102	-361.9557717	1022.237934 126 4925
2728.557019	-361.955848	1022.243475 126 4925
2728.487695	-361.955968	1022.252189 126 4925
2728.418965	-361.9560871	1022.260829 126 4925
2728.384103	-361.9561475	1022.265212 126 4925
2727.662596	-361.9573975	1022.355913 126 4925
2726.940812	-361.9586521	1022.446677 126 4925
2726.252853	-361.9598516	1022.533212 126 4925
2724.361636	-361.9631597	1022.771166 126 4925
2722.468152	-361.9665003	1023.00959 126 4925
2721.266403	-361.9686316	1023.160985 126 4925
2719.548624	-361.9716921	1023.377496 126 4925
2717.849204	-361.974737	1023.591844 126 4925
2717.408238	-361.9755283	1023.647474 126 4925
2715.889479	-361.9782572	1023.839112 126 4925
2714.384664	-361.9809715	1024.029109 126 4925
2713.397825	-361.9827551	1024.153758 126 4925
2711.873781	-361.9855137	1024.346339 126 4925
2710.353848	-361.9882712	1024.538521 126 4925
2710.060576	-361.9888037	1024.575609 126 4925
2709.02475	-361.9906851	1024.706627 126 4925
2707.97618	-361.9925939	1024.839315 126 4925
2707.475033	-361.9935077	1024.902744 126 4925
2706.440174	-361.9953984	1025.033749 126 4925
2705.415765	-361.9972779	1025.163485 126 4925
2705.062136	-361.9979281	1025.208279 126 4925
2704.048146	-361.999796	1025.336744 126 4925
2703.040198	-362.0016591	1025.464497 126 4925
2702.554589	-362.002558	1025.526058 126 4925
2700.114048	-362.0070801	1025.835508 126 4925
2697.70148	-362.0115652	1026.141691 126 4925
2695.880323	-362.014942	1026.372916 126 4925
2693.918014	-362.0185308	1026.62212 126 4925
2691.939153	-362.0221133	1026.873462 126 4925
2691.939153	-362.0221149	1026.873462 126 4927
2691.932295	-362.6928842	1026.811621 126 4927
2691.945621	-363.3792884	1026.908461 126 4927
2691.979632	-364.0204709	1027.168658 126 4927
2692.029923	-364.5678359	1027.5581 126 4927
2691.734264	-74.07769145	1045.988619 126 4947
2691.734222	-74.92089164	1045.96889 126 4947
2691.75255	-75.76817957	1046.112532 126 4947
2691.789209	-76.56990859	1046.420351 126 4947
2691.841175	-77.28385822	1046.86639 126 4947
2691.841175	-77.28385822	1046.86639 126 4949
2692.238666	-77.28279872	1046.821701 126 4949
2692.636153	-77.28173898	1046.777013 126 4949
2693.033644	-77.28067987	1046.732324 126 4949
2693.431138	-77.27961987	1046.687636 126 4949
2693.828627	-77.27856017	1046.642949 126 4949
2693.828627	-77.27856017	1046.642949 126 4951
2693.776665	-76.56459677	1046.196935 126 4951
2693.740009	-75.76285925	1045.889144 126 4951
2693.721684	-74.91556867	1045.74553 126 4951
2693.721728	-74.07237125	1045.765288 126 4951
2693.721728	-74.07237125	1045.765288 126 4953
2693.324233	-74.07343541	1045.809954 126 4953
2692.926743	-74.07450014	1045.854619 126 4953
2692.529251	-74.07556315	1045.899286 126 4953
2692.131756	-74.07662754	1045.943952 126 4953
2691.734265	-74.07769145	1045.988619 126 4953
2691.841177	-77.28385814	1046.86643 126 4973
2688.718075	-77.29234324	1047.217656 126 4973
2685.71142	-77.32970975	1048.703731 126 4973
2683.410054	-77.39700432	1051.278932 126 4973
2682.254916	-77.47705438	1054.412609 126 4973
2682.241201	-77.55828118	1057.55637 126 4973
2682.241183	-77.55843878	1057.56213 126 4975
2682.81183	-78.41837891	1057.544111 126 4975
2683.144015	-79.33313941	1057.523512 126 4975
2683.279897	-80.2017258	1057.503263 126 4975
2683.279815	-81.00242933	1057.484248 126 4975
2683.279815	-81.00242933	1057.484248 126 4977
2683.290063	-80.93027427	1054.64061 126 4977
2684.331116	-80.85848878	1051.807615 126 4977
2686.416713	-80.79951616	1049.475593 126 4977
2689.130584	-80.76567932	1048.131771 126 4977
2691.957324	-80.75788391	1047.813801 126 4977
2691.957324	-80.75788391	1047.813801 126 4979
2691.957401	-79.95625731	1047.834142 126 4979
2691.942246	-79.08317648	1047.720816 126 4979
2691.905082	-78.15890562	1047.413092 126 4979
2691.841177	-77.28385814	1046.86643 126 4979
2693.719791	-87.33110282	1045.428336 126 4999
2693.722034	-86.48948733	1045.451661 126 4999
2693.73413	-85.64871516	1045.639255 126 4999
2693.777082	-84.86584898	1045.98424 126 4999
2693.827906	-84.1740703	1046.46779 126 4999
2693.827945	-84.17355021	1046.468154 126 5001
2693.165914	-84.17390852	1046.543685 126 5001
2692.503206	-84.17543517	1046.618511 126 5001
2691.841301	-84.17898756	1046.691655 126 5001
2691.841273	-84.17934327	1046.691406 126 5003
2691.786168	-84.87041244	1046.209099 126 5003
2691.75582	-85.65507149	1045.862151 126 5003
2691.729197	-86.49298859	1045.67542 126 5003
2691.731777	-87.33691327	1045.652383 126 5003
2691.731778	-87.33727704	1045.652373 126 5005
2692.227001	-87.33816602	1045.596678 126 5005
2692.726713	-87.33520118	1045.540355 126 5005
2693.219662	-87.33372015	1045.484106 126 5005
2693.719014	-87.33110689	1045.428423 126 5005
2691.84054	-84.17898238	1046.69173 126 5025
2691.904595	-83.33287378	1047.281919 126 5025
2691.941927	-82.42551941	1047.636037 126 5025
2691.957246	-81.55941891	1047.793463 126 5025
2691.957324	-80.75788391	1047.813801 126 5025
2691.957324	-80.75788391	1047.813801 126 5027
2689.130584	-80.76567932	1048.131771 126 5027
2686.416713	-80.79951602	1049.475593 126 5027
2684.331116	-80.85848903	1051.807615 126 5027
2683.290063	-80.93027426	1054.64061 126 5027
2683.279815	-81.00242933	1057.484248 126 5027
2683.279815	-81.00242933	1057.484248 126 5029
2683.279743	-81.80259045	1057.462602 126 5029
2683.143852	-82.67050399	1057.438748 126 5029
2682.811926	-83.5844669	1057.412904 126 5029
2682.241874	-84.44369111	1057.387249 126 5029
2682.241895	-84.44354851	1057.381322 126 5031
2682.24241	-84.44062649	1057.263955 126 5031
2682.244528	-84.43765476	1057.14463 126 5031
2682.248189	-84.43481236	1057.030344 126 5031
2682.258752	-84.42897282	1056.795744 126 5031
2682.275682	-84.42314217	1056.561543 126 5031
2682.285796	-84.42021504	1056.443983 126 5031
2682.320945	-84.41144427	1056.09178 126 5031
2682.370492	-84.4027118	1055.741259 126 5031
2682.409892	-84.39691297	1055.508556 126 5031
2682.547084	-84.37960451	1054.81406 126 5031
2682.740773	-84.36262015	1054.132433 126 5031
2682.894593	-84.35149468	1053.685535 126 5031
2683.404311	-84.32034353	1052.431699 126 5031
2684.10529	-84.2915963	1051.2678 126 5031
2684.63756	-84.27418616	1050.559144 126 5031
2685.538767	-84.25014992	1049.584742 126 5031
2686.573798	-84.22982472	1048.761329 126 5031
2686.932447	-84.22350741	1048.504716 126 5031
2687.674498	-84.21183709	1048.02902 126 5031
2688.461005	-84.20211611	1047.631135 126 5031
2688.86396	-84.1977532	1047.452424 126 5031
2689.479366	-84.19198519	1047.216181 126 5031
2690.110345	-84.18739408	1047.02756 126 5031
2690.321104	-84.18600321	1046.97031 126 5031
2690.695319	-84.1837857	1046.87874 126 5031
2691.073198	-84.18198993	1046.803927 126 5031
2691.237489	-84.18129191	1046.774682 126 5031
2691.429483	-84.18057229	1046.744317 126 5031
2691.622076	-84.17996138	1046.718278 126 5031
2691.64935	-84.17987707	1046.714679 126 5031
2691.700412	-84.17972339	1046.708106 126 5031
2691.751512	-84.17957731	1046.701837 126 5031
2691.792787	-84.17946313	1046.696923 126 5031
2691.816692	-84.17939908	1046.694164 126 5031
2691.840514	-84.17933697	1046.691482 126 5031
2676.973375	92.90108158	1077.772837 108 5049
2677.973155	92.90110028	1077.751863 108 5049
2683.203335	92.90119834	1077.795288 126 5061
2683.203412	93.81277356	1077.769112 126 5061
2683.025433	94.72479052	1077.742289 126 5061
2682.669618	95.58343558	1077.716365 126 5061
2682.165342	96.34345893	1077.69274 126 5061
2682.165342	96.34345893	1077.69274 126 5063
2682.163918	96.35477568	1078.086763 126 5063
2682.162485	96.30971458	1078.482176 126 5063
2682.161075	96.20820791	1078.875614 126 5063
2682.158848	95.95003478	1079.494025 126 5063
2682.156745	95.49808454	1080.078102 126 5063
2682.155992	95.30161584	1080.287207 126 5063
2682.154467	94.80622024	1080.711273 126 5063
2682.153292	94.14805447	1081.038708 126 5063
2682.15282	93.74677306	1081.170746 126 5063
2682.152592	93.32282768	1081.235283 126 5063
2682.152597	92.90118376	1081.235287 126 5063
2676.973375	92.90108158	1077.772837 108 5071
2677.804398	92.34496928	1077.784687 108 5071
2682.152597	92.90118376	1081.235287 126 5079
2682.152605	92.32707807	1081.235293 126 5079
2682.153044	91.75724629	1081.115663 126 5079
2682.153904	91.25894791	1080.879262 126 5079
2682.156333	90.29980433	1080.210491 126 5079
2682.15934	89.77440102	1079.378697 126 5079
2682.161087	89.57843809	1078.889229 126 5079
2682.16292	89.47320539	1078.390673 126 5079
2682.164727	89.45884942	1077.890353 126 5079
2682.164727	89.45884942	1077.890353 126 5081
2682.668994	90.21867034	1077.87036 126 5081
2683.02498	91.07716292	1077.847001 126 5081
2683.203258	91.98924958	1077.821464 126 5081
2683.203335	92.90119834	1077.795288 126 5081
2683.203335	92.90255309	1077.795249 126 5095
2683.228104	92.70528678	1070.92279 126 5095
2683.252873	92.50802047	1064.050332 126 5095
2683.277643	92.31075416	1057.177874 126 5095
2683.277643	92.31075416	1057.177874 126 5097
2683.277536	93.11084554	1057.154908 126 5097
2683.141619	93.97867134	1057.129508 126 5097
2682.809683	94.89253282	1057.102081 126 5097
2682.239643	95.75167021	1057.075365 126 5097
2682.239643	95.75167021	1057.075365 126 5099
2682.214875	95.9489349	1063.947824 126 5099
2682.190107	96.14619958	1070.820282 126 5099
2682.165339	96.34346427	1077.69274 126 5099
2682.165342	96.34345889	1077.69274 126 5101
2682.710091	95.52243502	1077.71827 126 5101
2683.055056	94.62440396	1077.74529 126 5101
2683.203224	93.73680034	1077.771302 126 5101
2683.203335	92.90255309	1077.795249 126 5101
2683.203335	92.90119834	1077.795288 126 5121
2683.203264	92.06663963	1077.819242 126 5121
2683.055031	91.17865947	1077.844197 126 5121
2682.709839	90.2802154	1077.868741 126 5121
2682.164727	89.45884946	1077.890353 126 5121
2682.164712	89.45882767	1077.890354 126 5123
2682.189482	89.26156281	1071.017895 126 5123
2682.214252	89.06429794	1064.145437 126 5123
2682.239023	88.86703307	1057.272979 126 5123
2682.239023	88.86703307	1057.272979 126 5125
2682.809696	89.72690666	1057.250354 126 5125
2683.141883	90.64160512	1057.225296 126 5125
2683.277749	91.51012397	1057.200856 126 5125
2683.277643	92.31075416	1057.177874 126 5125
2683.277643	92.31075416	1057.177874 126 5127
2683.252873	92.50756891	1064.050345 126 5127
2683.228104	92.70438364	1070.922816 126 5127
2683.203335	92.90119834	1077.795288 126 5127
2694.026389	91.85049271	1048.052281 126 5147
2694.023636	90.95172956	1048.052595 126 5147
2694.003589	89.99911344	1047.900921 126 5147
2693.96116	89.03514898	1047.550948 126 5147
2693.896096	88.14353258	1046.998129 126 5147
2693.896096	88.14353484	1046.99813 126 5149
2693.228981	88.14552579	1047.073259 126 5149
2692.566754	88.14750215	1047.14784 126 5149
2691.908711	88.14946609	1047.221951 126 5149
2691.908711	88.14946609	1047.221951 126 5151
2691.961073	88.86692581	1047.666828 126 5151
2692.000546	89.63795268	1047.995867 126 5151
2692.026659	90.44045107	1048.20549 126 5151
2692.039426	91.25313093	1048.296401 126 5151
2692.039319	92.05632005	1048.273346 126 5151
2692.039319	92.05632005	1048.273346 126 5153
2692.436791	92.05508711	1048.228552 126 5153
2692.834264	92.05385418	1048.183759 126 5153
2693.231736	92.05262126	1048.138966 126 5153
2693.629209	92.05138836	1048.094174 126 5153
2694.026681	92.05015548	1048.049382 126 5153
2694.026681	92.05015548	1048.049382 126 5155
2694.02669	91.9839533	1048.051282 126 5155
2694.026594	91.91738988	1048.052258 126 5155
2694.026389	91.85049271	1048.052281 126 5155
2719.664799	184.905857	1027.832782 126 5177
2719.672581	184.9058603	1027.832272 126 5177
2719.680342	184.9058746	1027.831764 126 5177
2719.689919	184.9059125	1027.831135 126 5177
2719.709937	184.9060196	1027.829822 126 5177
2719.728576	184.9061705	1027.828599 126 5177
2719.736193	184.9062494	1027.828098 126 5177
2719.798535	184.9069724	1027.824001 126 5177
2719.860849	184.9083978	1027.819889 126 5177
2719.915347	184.9101823	1027.816276 126 5177
2720.039823	184.9154871	1027.807977 126 5177
2720.164098	184.923591	1027.799569 126 5177
2720.233919	184.929033	1027.794799 126 5177
2720.443114	184.9480058	1027.780356 126 5177
2720.651375	184.9749014	1027.765499 126 5177
2720.789689	184.9963373	1027.755394 126 5177
2721.202701	185.0711035	1027.724505 126 5177
2721.60885	185.1770058	1027.691976 126 5177
2721.875614	185.2612304	1027.669634 126 5177
2722.544894	185.5105459	1027.611154 126 5177
2723.176615	185.8441835	1027.549623 126 5177
2723.54373	186.0768785	1027.511332 126 5177
2724.064295	186.4671599	1027.452827 126 5177
2724.534089	186.9145771	1027.393734 126 5177
2724.684784	187.0698328	1027.374025 126 5177
2725.118313	187.5529949	1027.314955 126 5177
2725.49202	188.0834172	1027.256744 126 5177
2725.711919	188.45425	1027.218871 126 5177
2725.99747	189.036082	1027.163211 126 5177
2726.213235	189.6478456	1027.109713 126 5177
2726.277197	189.854728	1027.092137 126 5177
2726.39581	190.2994898	1027.05549 126 5177
2726.476272	190.7465388	1027.021043 126 5177
2726.508328	190.9841816	1027.003424 126 5177
2726.533143	191.2569373	1026.983929 126 5177
2726.544586	191.532141	1026.965474 126 5177
2726.545747	191.5645629	1026.963318 126 5177
2726.547696	191.6294545	1026.959038 126 5177
2726.548898	191.6944106	1026.954831 126 5177
2726.5493	191.7292804	1026.9526 126 5177
2726.549537	191.7590996	1026.950704 126 5177
2726.549573	191.7918787	1026.948648 126 5177
2726.549573	191.7918787	1026.948648 126 5179
2727.30671	191.7871425	1026.901749 126 5179
2728.061534	191.7913666	1027.002007 126 5179
2728.793238	191.8090229	1027.261806 126 5179
2729.468725	191.8356132	1027.668939 126 5179
2729.468725	191.8356132	1027.668939 126 5181
2729.468666	191.8128673	1027.670474 126 5181
2729.468545	191.790848	1027.67196 126 5181
2729.46836	191.7678471	1027.673513 126 5181
2729.46718	191.6605204	1027.680765 126 5181
2729.46457	191.55328	1027.688044 126 5181
2729.461619	191.4686771	1027.69383 126 5181
2729.452913	191.2771624	1027.707035 126 5181
2729.439632	191.0862059	1027.720452 126 5181
2729.430782	190.9797014	1027.728017 126 5181
2729.399933	190.6607817	1027.750904 126 5181
2729.35614	190.3436366	1027.774362 126 5181
2729.321158	190.1329847	1027.790234 126 5181
2729.222341	189.6246731	1027.829275 126 5181
2729.08933	189.1211991	1027.870069 126 5181
2728.999544	188.828196	1027.894706 126 5181
2728.696364	187.9624172	1027.969993 126 5181
2728.293996	187.1391039	1028.049246 126 5181
2727.983053	186.6122551	1028.103476 126 5181
2727.281066	185.6119926	1028.213614 126 5181
2726.431049	184.7316347	1028.324305 126 5181
2725.972177	184.3255492	1028.379863 126 5181
2725.044482	183.6261371	1028.483728 126 5181
2724.021475	183.0708751	1028.583909 126 5181
2723.519094	182.842614	1028.630513 126 5181
2722.742518	182.5545503	1028.698967 126 5181
2721.939611	182.3504354	1028.763784 126 5181
2721.669505	182.2918584	1028.784899 126 5181
2721.261351	182.2183364	1028.815702 126 5181
2720.849806	182.166447	1028.845147 126 5181
2720.712309	182.1515603	1028.854806 126 5181
2720.505683	182.1328483	1028.869057 126 5181
2720.298635	182.1195515	1028.882908 126 5181
2720.22958	182.1157204	1028.887477 126 5181
2720.114062	182.1103173	1028.895033 126 5181
2719.998483	182.1065863	1028.90243 126 5181
2719.952019	182.1053562	1028.905376 126 5181
2719.894212	182.1041603	1028.909003 126 5181
2719.836403	182.1033789	1028.91258 126 5181
2719.825376	182.103242	1028.91326 126 5181
2719.799019	182.1029608	1028.914881 126 5181
2719.77059	182.1027532	1028.916617 126 5181
2719.756775	182.1026834	1028.917456 126 5181
2719.745434	182.1026385	1028.918143 126 5181
2719.734103	182.1026094	1028.918827 126 5181
2719.734103	182.1026094	1028.918827 126 5183
2719.704193	182.6897198	1028.454148 126 5183
2719.683471	183.335006	1028.11798 126 5183
2719.670441	184.0248517	1027.915444 126 5183
2719.665612	184.7478533	1027.845625 126 5183
2719.665612	184.7478897	1027.845622 126 5185
2719.665263	184.8003282	1027.840558 126 5185
2719.664961	184.8529646	1027.836283 126 5185
2719.664706	184.905768	1027.832794 126 5185
2729.468684	191.8356324	1027.668982 126 5207
2728.816882	191.8092624	1027.27209 126 5207
2728.083807	191.7927651	1027.007484 126 5207
2727.311671	191.7873953	1026.900417 126 5207
2726.549607	191.7924912	1026.948231 126 5207
2726.549607	191.7924912	1026.948231 126 5209
2726.549618	192.1290914	1026.92627 126 5209
2726.549637	192.4656913	1026.904308 126 5209
2726.549664	192.8028596	1026.882308 126 5209
2726.549736	193.478172	1026.838244 126 5209
2726.54984	194.1543341	1026.794124 126 5209
2726.5499	194.492352	1026.772068 126 5209
2726.550003	194.9985787	1026.739036 126 5209
2726.550124	195.5031305	1026.706114 126 5209
2726.550166	195.6711019	1026.695154 126 5209
2726.550233	195.9227252	1026.678736 126 5209
2726.550304	196.1738933	1026.662348 126 5209
2726.550328	196.257568	1026.656888 126 5209
2726.550365	196.3830145	1026.648703 126 5209
2726.550403	196.5083782	1026.640523 126 5209
2726.550416	196.5501899	1026.637795 126 5209
2726.550442	196.6336699	1026.632349 126 5209
2726.550468	196.7172538	1026.626895 126 5209
2726.550481	196.758828	1026.624183 126 5209
2726.55052	196.881065	1026.616207 126 5209
2726.550557	196.9943315	1026.608817 126 5209
2726.55058	197.0637312	1026.60429 126 5209
2726.550622	197.1902152	1026.596039 126 5209
2726.550657	197.2953975	1026.589178 126 5209
2726.550673	197.3435254	1026.586039 126 5209
2726.55072	197.4801002	1026.577132 126 5209
2726.550767	197.6108733	1026.568604 126 5209
2726.550805	197.7111427	1026.562065 126 5209
2726.550855	197.8417313	1026.553547 126 5209
2726.550914	197.9926249	1026.543705 126 5209
2726.550927	197.9926248	1026.543704 126 5211
2727.160759	197.9898376	1026.504365 126 5211
2727.776034	197.9932809	1026.560533 126 5211
2728.378269	198.0027163	1026.709032 126 5211
2728.948744	198.0178573	1026.945902 126 5211
2729.469943	198.0382205	1027.264208 126 5211
2729.470012	198.0382232	1027.26425 126 5213
2729.469958	197.8860025	1027.274169 126 5213
2729.469908	197.7468663	1027.283236 126 5213
2729.46987	197.6377575	1027.290346 126 5213
2729.469822	197.4960728	1027.299579 126 5213
2729.469772	197.3392576	1027.309802 126 5213
2729.469754	197.2832672	1027.313452 126 5213
2729.469717	197.1603907	1027.321463 126 5213
2729.469674	197.0175345	1027.330777 126 5213
2729.469651	196.9429157	1027.335642 126 5213
2729.469616	196.8213729	1027.343567 126 5213
2729.46958	196.7003362	1027.35146 126 5213
2729.469566	196.6509208	1027.354682 126 5213
2729.469537	196.5492173	1027.361314 126 5213
2729.469512	196.4605296	1027.367098 126 5213
2729.469502	196.4232282	1027.369531 126 5213
2729.469468	196.2991921	1027.37762 126 5213
2729.469436	196.1805694	1027.385356 126 5213
2729.469414	196.0965397	1027.390837 126 5213
2729.46935	195.8517514	1027.406804 126 5213
2729.46929	195.6066568	1027.422792 126 5213
2729.469251	195.4431164	1027.433461 126 5213
2729.469062	194.6247428	1027.486856 126 5213
2729.468908	193.8034668	1027.54046 126 5213
2729.468806	193.1457676	1027.5834 126 5213
2729.468731	192.490789	1027.626177 126 5213
2729.468684	191.8356324	1027.668982 126 5213
2719.710063	207.7191004	1027.248756 126 5233
2719.884967	207.7177531	1027.238227 126 5233
2720.056929	207.7129554	1027.228012 126 5233
2720.229985	207.704793	1027.217802 126 5233
2720.583644	207.6806122	1027.197372 126 5233
2720.949045	207.6398573	1027.176929 126 5233
2721.144467	207.6135863	1027.166278 126 5233
2721.710795	207.5234265	1027.136187 126 5233
2722.292334	207.3887612	1027.107817 126 5233
2722.667129	207.2805445	1027.090978 126 5233
2723.777621	206.9021623	1027.044962 126 5233
2724.804625	206.369093	1027.015047 126 5233
