5619.726648	691.1232427	2563.180181 126 4165
5619.841569	691.2392404	2561.866764 126 4165
5620.006776	691.4019334	2559.979043 126 4165
5620.183027	691.5739097	2557.965422 126 4165
5620.22916	691.6189497	2557.43847 126 4165
5620.324852	691.7123631	2556.345505 126 4165
5620.422841	691.8080132	2555.226364 126 4165
5620.472247	691.8562417	2554.662073 126 4165
5620.820834	692.1965528	2550.680342 126 4165
5621.191213	692.5583402	2546.447496 126 4165
5621.51809	692.8775965	2542.712218 126 4165
5621.852618	693.2043817	2538.888905 126 4165
5622.192854	693.5367765	2535.0 126 4165
5622.192854	693.5367765	2535.0 126 4167
5634.370679	692.5638757	2535.0 126 4167
5646.548504	691.5909755	2535.0 126 4167
5658.726329	690.618076	2535.0 126 4167
5658.726329	690.618076	2535.0 126 4169
5661.581951	690.3899374	2535.0 126 4169
5664.438622	690.0949677	2535.72188 126 4169
5667.009009	689.7557837	2537.1693 126 4169
5669.069115	689.4084063	2539.146236 126 4169
5613.32225	677.0609323	2641.866339 126 4195
5610.331393	677.204707	2641.661843 126 4195
5607.351481	677.8775765	2641.668692 126 4195
5604.526551	679.0733146	2641.897013 126 4195
5599.470857	682.3901457	2642.773592 126 4195
5596.01127	687.1663544	2644.370115 126 4195
5594.783459	689.8223987	2645.318837 126 4195
5594.11944	692.6127746	2646.3703 126 4195
5594.023103	695.4031145	2647.471415 126 4195
5594.023113	695.4031744	2647.471308 126 4197
5594.200249	696.3321095	2645.446634 126 4197
5594.379162	697.1898508	2643.401649 126 4197
5594.559249	697.9819601	2641.343241 126 4197
5594.767937	698.8347102	2638.95793 126 4197
5594.976997	699.6397643	2636.568365 126 4197
5595.005028	699.7468816	2636.247962 126 4197
5595.117168	700.1726189	2634.966196 126 4197
5595.22937	700.587442	2633.68372 126 4197
5595.313562	700.8924545	2632.721404 126 4197
5595.500378	701.5553652	2630.586087 126 4197
5595.687413	702.1879955	2628.448268 126 4197
5595.790219	702.5262769	2627.273187 126 4197
5595.996043	703.1842871	2624.920617 126 4197
5596.202344	703.8042011	2622.562581 126 4197
5596.305628	704.1043863	2621.382036 126 4197
5596.541507	704.765854	2618.685935 126 4197
5596.778386	705.3725036	2615.97839 126 4197
5596.911801	705.6949953	2614.453444 126 4197
5597.112554	706.1492174	2612.158833 126 4197
5597.314148	706.5549652	2609.854608 126 4197
5597.381433	706.684595	2609.08553 126 4197
5597.504927	706.9114696	2607.673987 126 4197
5597.628646	707.1177236	2606.259871 126 4197
5597.684918	707.2070573	2605.616679 126 4197
5597.751616	707.3074716	2604.854317 126 4197
5597.818347	707.4012569	2604.091583 126 4197
5597.82853	707.4154138	2603.975189 126 4197
5597.838739	707.4294442	2603.858503 126 4197
5597.849023	707.4434158	2603.740955 126 4197
5597.849023	707.4434158	2603.740955 126 4199
5597.909862	701.5472365	2603.045556 126 4199
5600.160452	695.6470526	2602.541232 126 4199
5604.62346	690.8495936	2602.361531 126 4199
5610.35875	688.1654364	2602.544362 126 4199
5616.256664	687.6562888	2603.000001 126 4199
5616.256664	687.6562888	2603.000001 126 4201
5616.2486	687.644823	2603.09623 126 4201
5616.240617	687.6333056	2603.191771 126 4201
5616.232675	687.6216727	2603.287157 126 4201
5616.180698	687.5443767	2603.914006 126 4201
5616.129636	687.4610509	2604.544465 126 4201
5616.087133	687.3864749	2605.079268 126 4201
5615.994884	687.2133243	2606.260999 126 4201
5615.905241	687.0206927	2607.453219 126 4201
5615.857053	686.9099895	2608.106428 126 4201
5615.714439	686.5615518	2610.073878 126 4201
5615.577121	686.1657537	2612.06257 126 4201
5615.487436	685.8822833	2613.395829 126 4201
5615.330137	685.3450195	2615.780548 126 4201
5615.175316	684.7529863	2618.181502 126 4201
5615.107637	684.4832894	2619.237122 126 4201
5614.972243	683.9245766	2621.352834 126 4201
5614.835994	683.3285907	2623.475508 126 4201
5614.767459	683.0216205	2624.538091 126 4201
5614.641617	682.4467607	2626.474465 126 4201
5614.513447	681.8433787	2628.412876 126 4201
5614.455118	681.5656263	2629.287064 126 4201
5614.376567	681.187792	2630.452606 126 4201
5614.296916	680.8000113	2631.617838 126 4201
5614.276935	680.7024444	2631.909124 126 4201
5614.126435	679.9700417	2634.081779 126 4201
5613.962225	679.2034145	2636.252631 126 4201
5613.791562	678.5144557	2638.129799 126 4201
5613.580305	677.8002664	2640.002054 126 4201
5613.322284	677.060959	2641.86627 126 4201
5590.739778	750.1166335	2685.0 108 4219
5591.190305	716.6752738	2679.850443 108 4221
5603.863077	750.1166335	2535.0 108 4221
5603.863077	750.1166335	2535.0 108 4223
5603.863077	713.3970137	2535.0 108 4223
5603.863077	713.3970137	2535.0 126 4225
5603.467597	713.0106467	2539.520359 126 4225
5603.072157	712.6243206	2544.040254 126 4225
5602.67676	712.2380364	2548.559663 126 4225
5602.268299	711.8389879	2553.228401 126 4225
5601.859887	711.4399851	2557.896571 126 4225
5601.857061	711.4372242	2557.92887 126 4225
5601.832616	711.4133423	2558.208282 126 4225
5601.809429	711.3906904	2558.473304 126 4225
5601.799781	711.3812645	2558.58358 126 4225
5601.778792	711.3607533	2558.823484 126 4225
5601.756875	711.3393179	2559.073996 126 4225
5601.747771	711.3304099	2559.178059 126 4225
5601.72514	711.3082531	2559.436736 126 4225
5601.702498	711.2860525	2559.695531 126 4225
5601.691432	711.2751925	2559.822018 126 4225
5601.373683	710.9630616	2563.453909 126 4225
5601.05405	710.6395196	2567.10733 126 4225
5600.739165	710.288679	2570.706475 126 4225
5600.334151	709.8328598	2575.335807 126 4225
5599.932047	709.407607	2579.931883 126 4225
5599.835893	709.3081132	2581.030923 126 4225
5599.53891	709.0092985	2584.425455 126 4225
5599.242688	708.7393144	2587.811287 126 4225
5599.044063	708.572902	2590.081589 126 4225
5598.732127	708.3282654	2593.647031 126 4225
5598.415326	708.0607063	2597.26808 126 4225
5598.300294	707.9578475	2598.582907 126 4225
5598.178949	707.8384585	2599.969882 126 4225
5598.056565	707.7006324	2601.368742 126 4225
5598.051099	707.6944433	2601.431209 126 4225
5598.040139	707.6819561	2601.556491 126 4225
5598.029216	707.6693727	2601.681343 126 4225
5598.023785	707.6630839	2601.743412 126 4225
5598.007499	707.6441176	2601.929559 126 4225
5597.991439	707.6250778	2602.11313 126 4225
5597.981203	707.6127851	2602.230132 126 4225
5597.959921	707.5869241	2602.473386 126 4225
5597.938217	707.5599393	2602.721466 126 4225
5597.925197	707.5435333	2602.87028 126 4225
5597.909172	707.5230759	2603.053445 126 4225
5597.89314	707.5022325	2603.236697 126 4225
5597.887626	707.4950199	2603.299715 126 4225
5597.879355	707.484132	2603.394253 126 4225
5597.871083	707.4731406	2603.488803 126 4225
5597.868326	707.4694652	2603.52032 126 4225
5597.862811	707.4620915	2603.583358 126 4225
5597.857296	707.4546717	2603.646398 126 4225
5597.854521	707.4509275	2603.67811 126 4225
5597.85178	707.4472174	2603.709439 126 4225
5597.849022	707.4434727	2603.740962 126 4225
5597.849023	707.4434158	2603.740955 126 4227
5597.84215	707.4340782	2603.819516 126 4227
5597.835294	707.4246924	2603.897876 126 4227
5597.828449	707.4152475	2603.97612 126 4227
5597.814723	707.3961644	2604.133009 126 4227
5597.800919	707.3766886	2604.290787 126 4227
5597.794	707.3668563	2604.369874 126 4227
5597.631194	707.133801	2606.230751 126 4227
5597.468704	706.8616769	2608.088022 126 4227
5597.313436	706.5684291	2609.862735 126 4227
5596.998965	705.912961	2613.457159 126 4227
5596.686543	705.1465894	2617.028155 126 4227
5596.528295	704.7312295	2618.836941 126 4227
5596.195837	703.8055117	2622.636957 126 4227
5595.865213	702.7789216	2626.416 126 4227
5595.691689	702.2125917	2628.399391 126 4227
5595.411657	701.2555645	2631.600178 126 4227
5595.132688	700.2332792	2634.788808 126 4227
5595.018068	699.8028151	2636.098923 126 4227
5594.752845	698.780635	2639.130435 126 4227
5594.489355	697.6711729	2642.142138 126 4227
5594.332402	696.9644457	2643.936116 126 4227
5594.176918	696.2097592	2645.713305 126 4227
5594.023113	695.4031744	2647.471308 126 4227
5594.023107	695.4031342	2647.471372 126 4229
5593.943058	694.985741	2648.386333 126 4229
5593.863622	694.5530973	2649.294294 126 4229
5593.784808	694.104717	2650.195139 126 4229
5593.545275	692.6818749	2652.933023 126 4229
5593.312794	691.1137536	2655.590287 126 4229
5593.159682	689.9920313	2657.340361 126 4229
5592.699207	686.3449916	2662.60362 126 4229
5592.275608	682.16972	2667.445379 126 4229
5592.00653	679.1523948	2670.520957 126 4229
5591.751957	676.0060778	2673.430736 126 4229
5591.507652	672.7761551	2676.223154 126 4229
5591.507651	672.7761644	2676.223164 126 4231
5591.354123	672.6087605	2677.977995 126 4231
5591.200575	672.4395784	2679.733062 126 4231
5591.047002	672.2685479	2681.488411 126 4231
5590.893403	672.0955947	2683.244058 126 4231
5590.739778	671.9206381	2685.000001 126 4231
5590.739797	671.9206381	2685.000003 108 4233
5590.739778	714.6193642	2685.0 108 4233
5590.739778	714.6193642	2685.0 126 4235
5590.823843	715.1873252	2684.039126 126 4235
5590.911246	715.6794327	2683.040108 126 4235
5591.00171	716.091887	2682.006097 126 4235
5591.094877	716.4234528	2680.941199 126 4235
5591.190305	716.6752738	2679.850443 126 4235
5590.739797	671.9206381	2685.000003 126 4245
5590.995974	672.2123853	2682.071896 126 4245
5591.251926	672.4973035	2679.146357 126 4245
5591.507672	672.7761644	2676.223166 126 4245
5591.507672	672.7761655	2676.223167 126 4247
5591.316085	670.9514383	2678.413559 126 4247
5591.048255	669.0813132	2680.48348 126 4247
5590.691286	667.1917544	2682.4392 126 4247
5590.243609	665.3101647	2684.297942 126 4247
5590.243608	665.3101639	2684.29796 126 4249
5590.592867	667.493158	2684.546023 126 4249
5590.759001	669.7068764	2684.781126 126 4249
5590.739796	671.9206274	2685.000018 126 4249
5590.613813	677.5987488	2704.464334 126 4267
5590.607722	677.6682816	2704.439736 126 4267
5590.601423	677.7378363	2704.415144 126 4267
5590.594915	677.8074119	2704.390559 126 4267
5590.594919	677.8074438	2704.390589 126 4269
5590.471303	676.82915	2703.362544 126 4269
5590.364372	675.8990272	2702.338433 126 4269
5590.275827	675.0359941	2701.312809 126 4269
5590.182934	674.0100384	2699.935136 126 4269
5590.126442	673.1848154	2698.527912 126 4269
5590.114648	672.9917755	2698.173929 126 4269
5590.09901	672.6932904	2697.580303 126 4269
5590.090119	672.4340977	2696.97883 126 4269
5590.088798	672.369228	2696.811782 126 4269
5590.086725	672.2686117	2696.552994 126 4269
5590.085909	672.1754238	2696.292503 126 4269
5590.085359	672.1151741	2696.124394 126 4269
5590.088696	671.8181547	2695.184463 126 4269
5590.10852	671.6142144	2694.220158 126 4269
5590.132104	671.5129058	2693.492682 126 4269
5590.174752	671.4385644	2692.521366 126 4269
5590.231495	671.4267661	2691.517337 126 4269
5590.245818	671.4275141	2691.276652 126 4269
5590.272345	671.4335829	2690.84771 126 4269
5590.299211	671.4474135	2690.441937 126 4269
5590.313421	671.4559168	2690.231993 126 4269
5590.362506	671.4918308	2689.533459 126 4269
5590.417039	671.5453752	2688.816902 126 4269
5590.454868	671.5864304	2688.340265 126 4269
5590.515615	671.6561339	2687.599483 126 4269
5590.579704	671.7323387	2686.844358 126 4269
5590.591012	671.7458506	2686.712183 126 4269
5590.624595	671.7859345	2686.322065 126 4269
5590.65924	671.8269622	2685.923181 126 4269
5590.665546	671.83441	2685.850721 126 4269
5590.682636	671.8545042	2685.654658 126 4269
5590.699663	671.8743529	2685.459693 126 4269
5590.704921	671.880463	2685.399512 126 4269
5590.715586	671.8928259	2685.277503 126 4269
5590.725644	671.904383	2685.162521 126 4269
5590.730322	671.9097392	2685.109039 126 4269
5590.73508	671.9151842	2685.054659 126 4269
5590.739861	671.9206445	2685.000009 126 4269
5590.739865	671.9206327	2684.99997 126 4271
5590.759027	669.7068843	2684.78108 126 4271
5590.592751	667.4931671	2684.54597 126 4271
5590.24361	665.3101667	2684.297922 126 4271
5590.243609	665.3101729	2684.29795 126 4273
5590.235701	665.2769249	2684.330794 126 4273
5590.227781	665.243749	2684.363552 126 4273
5590.219831	665.2105555	2684.396308 126 4273
5590.204055	665.1449178	2684.461039 126 4273
5590.187789	665.0776983	2684.527245 126 4273
5590.178239	665.0383648	2684.565961 126 4273
5590.160212	664.9644044	2684.638696 126 4273
5590.141012	664.8862413	2684.715485 126 4273
5590.132497	664.8517293	2684.749381 126 4273
5590.113933	664.7767469	2684.822972 126 4273
5590.096465	664.7066884	2684.891616 126 4273
5590.088086	664.6731854	2684.924409 126 4273
5590.062181	664.5699576	2685.025405 126 4273
5590.034893	664.462317	2685.130575 126 4273
5590.016659	664.3909218	2685.200256 126 4273
5589.98035	664.2496834	2685.33791 126 4273
5589.943844	664.1095559	2685.474133 126 4273
5589.925509	664.0396368	2685.542017 126 4273
5589.87012	663.8297856	2685.74553 126 4273
5589.813453	663.6192147	2685.94904 126 4273
5589.778216	663.4898957	2686.073744 126 4273
5589.626517	662.9399686	2686.602827 126 4273
5589.466944	662.3889347	2687.128092 126 4273
5589.338982	661.962719	2687.531511 126 4273
5589.041863	661.0079895	2688.42899 126 4273
5588.718127	660.04949	2689.315743 126 4273
5588.52393	659.5006759	2689.818858 126 4273
5588.319413	658.950093	2690.318982 126 4273
5588.103399	658.3972351	2690.816629 126 4273
5588.103398	658.3972348	2690.816655 126 4275
5588.05239	658.3886065	2691.735615 126 4275
5587.940769	658.3897142	2693.878312 126 4275
5587.795873	658.4946995	2697.339741 126 4275
5587.688317	658.7563727	2701.160452 126 4275
5587.626117	659.2448619	2705.794398 126 4275
5587.646163	659.7305879	2709.103317 126 4275
5587.680404	660.0575304	2711.111949 126 4275
5587.680435	660.0576033	2711.111957 126 4277
5587.852932	660.4433843	2710.955591 126 4277
5588.019611	660.8317327	2710.798826 126 4277
5588.180452	661.2225801	2710.641689 126 4277
5588.490161	662.0085004	2710.326981 126 4277
5588.776355	662.8038737	2710.011003 126 4277
5588.918966	663.2185824	2709.846932 126 4277
5589.195454	664.0685958	2709.512017 126 4277
5589.445216	664.928139	2709.175997 126 4277
5589.560842	665.3524887	2709.010784 126 4277
5589.727952	666.0021186	2708.758895 126 4277
5589.879486	666.6551488	2708.507244 126 4277
5589.977216	667.0998144	2708.336405 126 4277
5590.08617	667.6249797	2708.135246 126 4277
5590.185469	668.1541512	2707.933558 126 4277
5590.235387	668.4367017	2707.826176 126 4277
5590.303552	668.8457358	2707.671128 126 4277
5590.365227	669.2523576	2707.517584 126 4277
5590.389929	669.4211697	2707.453927 126 4277
5590.428656	669.6959709	2707.350447 126 4277
5590.465041	669.9739908	2707.24603 126 4277
5590.483064	670.1173895	2707.192246 126 4277
5590.535645	670.5538416	2707.02877 126 4277
5590.581826	670.9947315	2706.864303 126 4277
5590.60477	671.2364606	2706.774356 126 4277
5590.722917	672.6248115	2706.25906 126 4277
5590.774594	674.0496779	2705.736839 126 4277
5590.770251	675.2501827	2705.301381 126 4277
5590.717571	676.4153969	2704.883577 126 4277
5590.613822	677.5987722	2704.464398 126 4277
5610.830705	650.2771589	2708.980237 108 4299
5610.778372	650.2767858	2709.978867 108 4299
5588.742268	660.0651442	2690.850757 108 4301
5587.367324	660.0553402	2717.087815 108 4301
5586.560377	650.282126	2694.402027 108 4305
5585.377183	650.2736808	2716.979867 108 4305
5585.377183	650.2736808	2716.979867 126 4307
5585.399326	650.9631241	2716.557319 126 4307
5585.44464	651.6364175	2716.146564 126 4307
5585.509931	652.2818407	2715.754168 126 4307
5585.624997	653.1439643	2715.231165 126 4307
5585.762628	653.9370439	2714.751638 126 4307
5585.802727	654.1540653	2714.620553 126 4307
5585.852485	654.4082402	2714.46721 126 4307
5585.902818	654.6500962	2714.321534 126 4307
5585.912385	654.6955394	2714.294172 126 4307
5585.93213	654.7883076	2714.238332 126 4307
5585.952075	654.8799371	2714.183226 126 4307
5585.958998	654.9114752	2714.164267 126 4307
5585.975019	654.983584	2714.120944 126 4307
5585.989831	655.0492308	2714.081519 126 4307
5585.994121	655.068147	2714.070158 126 4307
5586.003035	655.1073251	2714.046641 126 4307
5586.013881	655.1545223	2714.018332 126 4307
5586.020023	655.1811118	2714.002388 126 4307
5586.039461	655.2646594	2713.952293 126 4307
5586.060336	655.3527037	2713.899519 126 4307
5586.073381	655.406938	2713.867029 126 4307
5586.118576	655.5928521	2713.75571 126 4307
5586.166268	655.7813546	2713.642971 126 4307
5586.180024	655.834517	2713.61119 126 4307
5586.24541	656.08223	2713.463231 126 4307
5586.313476	656.3276819	2713.316859 126 4307
5586.345938	656.4421613	2713.248641 126 4307
5586.447696	656.7932562	2713.039564 126 4307
5586.55527	657.1411475	2712.832816 126 4307
5586.627202	657.3644204	2712.700304 126 4307
5586.860767	658.0615303	2712.287095 126 4307
5587.116106	658.742046	2711.885224 126 4307
5587.296021	659.1892274	2711.621763 126 4307
5587.484348	659.6277996	2711.36397 126 4307
5587.680488	660.0575732	2711.111941 126 4307
5587.680488	660.0575732	2711.111941 126 4309
5587.612015	659.403914	2707.095975 126 4309
5587.615792	658.8454141	2703.006034 126 4309
5587.705907	658.4607832	2698.85521 126 4309
5587.884479	658.3599626	2694.75947 126 4309
5588.103391	658.3972058	2690.816654 126 4309
5588.103391	658.3972061	2690.816655 126 4311
5587.916372	657.8813619	2691.003719 126 4311
5587.740563	657.3542974	2691.2037 126 4311
5587.578795	656.8224611	2691.413613 126 4311
5587.399902	656.1719182	2691.679424 126 4311
5587.240747	655.5079845	2691.961383 126 4311
5587.215387	655.3996406	2692.007669 126 4311
5587.165695	655.1820633	2692.101174 126 4311
5587.118279	654.9636277	2692.1961 126 4311
5587.095148	654.854165	2692.243928 126 4311
5587.06041	654.685437	2692.318019 126 4311
5587.026483	654.5132882	2692.394315 126 4311
5587.019213	654.4759215	2692.410929 126 4311
5586.995645	654.352945	2692.465716 126 4311
5586.973602	654.2340926	2692.518919 126 4311
5586.965458	654.1894483	2692.538944 126 4311
5586.946735	654.0856037	2692.585668 126 4311
5586.929069	653.9847357	2692.631321 126 4311
5586.921331	653.9399924	2692.651604 126 4311
5586.903636	653.836048	2692.698812 126 4311
5586.886309	653.7310039	2692.746726 126 4311
5586.877946	653.6794773	2692.770286 126 4311
5586.834176	653.4054525	2692.895864 126 4311
5586.793944	653.1298333	2693.023666 126 4311
5586.76151	652.8889468	2693.136298 126 4311
5586.682135	652.2423092	2693.441215 126 4311
5586.622133	651.5793524	2693.760717 126 4311
5586.593149	651.1632999	2693.963848 126 4311
5586.57198	650.7250541	2694.18043 126 4311
5586.560368	650.2821175	2694.40201 126 4311
5610.830705	650.2771589	2708.980237 108 4319
5610.778372	650.2767858	2709.978867 108 4319
5586.560368	650.2821175	2694.40201 108 4321
5585.370582	650.2736337	2717.10583 108 4321
5585.377183	650.2736808	2716.979867 108 4325
5586.560377	650.282126	2694.402027 108 4325
5586.560368	650.2821175	2694.40201 126 4327
5586.558576	650.213789	2694.436191 126 4327
5586.557058	650.1453263	2694.470516 126 4327
5586.555816	650.0767359	2694.50498 126 4327
5586.555815	650.0767495	2694.505009 108 4329
5585.371428	650.0683041	2717.105786 108 4329
5585.371428	650.0683195	2717.105798 126 4331
5585.37307	650.1369569	2717.063686 126 4331
5585.37499	650.2054141	2717.021707 126 4331
5585.377183	650.2736808	2716.979867 126 4331
5585.480071	601.489419	2721.864647 126 4341
5585.099372	601.4864981	2729.129205 126 4341
5584.718672	601.4835771	2736.393764 126 4341
5584.718672	601.4835771	2736.393764 126 4343
5584.77067	605.9615009	2734.837974 126 4343
5584.828095	610.4374505	2733.165063 126 4343
5584.889897	614.9347488	2731.391428 126 4343
5584.993515	622.2177686	2728.427219 126 4343
5585.098627	629.5376786	2725.387388 126 4343
5585.13879	632.3550161	2724.216616 126 4343
5585.21188	637.5750613	2722.060358 126 4343
5585.281648	642.820012	2719.940301 126 4343
5585.312705	645.2291181	2718.980285 126 4343
5585.342681	647.6452528	2718.034562 126 4343
5585.371428	650.0683051	2717.105789 126 4343
5585.371428	650.068312	2717.105786 126 4345
5585.963621	650.0725307	2705.805396 126 4345
5586.555815	650.0767493	2694.505007 126 4345
5586.555815	650.0767493	2694.505009 126 4347
5586.538907	649.5642613	2694.908055 126 4347
5586.521986	649.0520198	2695.31108 126 4347
5586.505056	648.539943	2695.713989 126 4347
5586.434073	646.3930656	2697.402319 126 4347
5586.363266	644.244551	2699.083351 126 4347
5586.304004	642.4282339	2700.490312 126 4347
5586.09348	635.748177	2705.513033 126 4347
5585.912948	628.7218794	2709.975557 126 4347
5585.794803	623.2906489	2712.992737 126 4347
5585.6567	615.6641338	2716.665809 126 4347
5585.551322	607.8702869	2719.692523 126 4347
5585.525186	605.7501585	2720.46439 126 4347
5585.501447	603.6229414	2721.188233 126 4347
5585.480071	601.4894234	2721.864646 126 4347
5606.182339	569.65634	2727.374584 126 4367
5605.848996	569.653843	2733.732762 126 4367
5605.515653	569.651346	2740.09094 126 4367
5605.18231	569.648849	2746.449118 126 4367
5605.182038	569.648968	2746.449096 126 4369
5604.332834	570.021408	2746.372355 126 4369
5603.501261	570.4205149	2746.291085 126 4369
5602.688159	570.8448809	2746.205191 126 4369
5601.38958	571.5781223	2746.05694 126 4369
5600.146032	572.3706131	2745.895838 126 4369
5599.693066	572.6723781	2745.834274 126 4369
5599.108677	573.0789712	2745.750921 126 4369
5598.538679	573.4975045	2745.664455 126 4369
5598.425069	573.5818244	2745.647008 126 4369
5598.200026	573.7506378	2745.612017 126 4369
5597.977451	573.9211623	2745.576544 126 4369
5597.862393	574.0102548	2745.557971 126 4369
5597.652491	574.1745092	2745.523695 126 4369
5597.442895	574.3418237	2745.488661 126 4369
5597.329042	574.4336133	2745.46939 126 4369
5597.116379	574.6068257	2745.432913 126 4369
5596.900613	574.7862049	2745.394961 126 4369
5596.823754	574.8507188	2745.381294 126 4369
5596.279833	575.3116557	2745.283425 126 4369
5595.759878	575.7762031	2745.183292 126 4369
5595.351334	576.1559078	2745.100527 126 4369
5594.548142	576.9339705	2744.928859 126 4369
5593.785175	577.7356968	2744.747038 126 4369
5593.406508	578.1503089	2744.651546 126 4369
5592.671539	578.9884668	2744.45543 126 4369
5591.979896	579.844686	2744.248332 126 4369
5591.638295	580.2856489	2744.1398 126 4369
5591.144469	580.9503372	2743.972977 126 4369
5590.674721	581.6241376	2743.798648 126 4369
5590.528302	581.838684	2743.742578 126 4369
5590.302894	582.1761195	2743.653594 126 4369
5590.085326	582.5124625	2743.563614 126 4369
5590.003307	582.6406899	2743.529131 126 4369
5589.864523	582.8601078	2743.469761 126 4369
5589.727363	583.0816464	2743.409113 126 4369
5589.652191	583.204432	2743.375291 126 4369
5589.446237	583.5447083	2743.280995 126 4369
5589.240952	583.8953934	2743.182277 126 4369
5589.105738	584.1318459	2743.115114 126 4369
5588.840599	584.6065293	2742.978803 126 4369
5588.587612	585.081463	2742.839238 126 4369
5588.470101	585.3073159	2742.772108 126 4369
5588.09959	586.0365476	2742.553127 126 4369
5587.752283	586.7743351	2742.324448 126 4369
5587.529537	587.2734408	2742.166413 126 4369
5586.996079	588.5365377	2741.757225 126 4369
5586.531035	589.8146265	2741.319973 126 4369
5586.27596	590.5885329	2741.046753 126 4369
5585.968678	591.6249116	2740.669102 126 4369
5585.705828	592.659173	2740.275504 126 4369
5585.642327	592.9198823	2740.175193 126 4369
5585.489387	593.5758928	2739.920056 126 4369
5585.353554	594.2317483	2739.658136 126 4369
5585.276349	594.6348296	2739.494649 126 4369
5585.159757	595.2963882	2739.222408 126 4369
5585.059287	595.9627356	2738.940889 126 4369
5585.021387	596.2322842	2738.82574 126 4369
5584.968723	596.6365938	2738.651421 126 4369
5584.922882	597.0341188	2738.477529 126 4369
5584.909404	597.1561612	2738.423884 126 4369
5584.881539	597.4197677	2738.307415 126 4369
5584.856482	597.6811239	2738.190706 126 4369
5584.844562	597.8121296	2738.131892 126 4369
5584.821971	598.0744225	2738.013538 126 4369
5584.8018	598.3386537	2737.893184 126 4369
5584.792323	598.4713255	2737.832483 126 4369
5584.765644	598.8725197	2737.648079 126 4369
5584.744805	599.2760625	2737.460043 126 4369
5584.733088	599.5589486	2737.326955 126 4369
5584.716022	600.1046858	2737.067774 126 4369
5584.709954	600.6519145	2736.803116 126 4369
5584.709708	600.9286724	2736.668062 126 4369
5584.7123	601.2058757	2736.5316 126 4369
5584.717755	601.4835729	2736.393719 126 4369
5584.717756	601.4835711	2736.393716 126 4371
5584.971555	601.4855184	2731.550677 126 4371
5585.225355	601.4874658	2726.707638 126 4371
5585.479155	601.4894132	2721.864599 126 4371
5585.479155	601.4894092	2721.864599 126 4373
5585.466486	599.5213549	2722.345775 126 4373
5585.595314	597.5344153	2722.806017 126 4373
5585.869137	595.5467263	2723.243387 126 4373
5586.700814	591.6333682	2724.061825 126 4373
5588.093459	587.8702458	2724.762125 126 4373
5588.93419	586.0289731	2725.084671 126 4373
5590.438998	583.2774641	2725.542764 126 4373
5592.22692	580.737867	2725.931852 126 4373
5592.926765	579.8263474	2726.066888 126 4373
5594.57687	577.8499415	2726.350965 126 4373
5596.389031	576.0484707	2726.592936 126 4373
5597.456081	575.0936644	2726.716821 126 4373
5599.747013	573.2458149	2726.950538 126 4373
5602.192518	571.6652531	2727.140184 126 4373
5603.492935	570.9207724	2727.227449 126 4373
5604.824447	570.250606	2727.305143 126 4373
5606.182271	569.6563701	2727.374581 126 4373
5630.129464	559.1675154	2728.204945 126 4393
5627.661664	560.0912766	2734.853613 126 4393
5625.193522	561.0152341	2741.501812 126 4393
5622.725039	561.939387	2748.149543 126 4393
5622.72498	561.9394129	2748.149538 126 4395
5621.317237	562.5575624	2748.034916 126 4395
5619.907626	563.1766875	2747.913451 126 4395
5618.498293	563.7958307	2747.786017 126 4395
5616.3768	564.728022	2747.586254 126 4395
5614.252956	565.661463	2747.37695 126 4395
5613.614742	565.9419799	2747.313281 126 4395
5611.490301	566.8757908	2747.0993 126 4395
5609.369723	567.8080166	2746.880848 126 4395
5607.970352	568.4232113	2746.735909 126 4395
5606.574174	569.0369899	2746.591827 126 4395
5605.182241	569.6488801	2746.449117 126 4395
5605.182038	569.6489692	2746.449104 126 4397
5605.515381	569.6514662	2740.090926 126 4397
5605.848928	569.6538742	2733.732759 126 4397
5606.182271	569.6563711	2727.37458 126 4397
5606.182271	569.6563711	2727.37458 126 4399
5607.158916	569.2282337	2727.424207 126 4399
5608.135665	568.8000882	2727.472205 126 4399
5609.112573	568.3719114	2727.518575 126 4399
5612.046768	567.0859741	2727.652957 126 4399
5614.978121	565.8016236	2727.772563 126 4399
5616.872212	564.9718867	2727.843634 126 4399
5619.767524	563.7037678	2727.942907 126 4399
5622.64474	562.4438946	2728.02787 126 4399
5623.620101	562.01684	2728.055136 126 4399
5625.492854	561.1969366	2728.104604 126 4399
5627.354191	560.3821621	2728.148156 126 4399
5628.280904	559.9765386	2728.168456 126 4399
5629.206656	559.5713671	2728.187393 126 4399
5630.129464	559.1675154	2728.204945 126 4399
5657.869113	537.8580692	2720.901755 128 4417
5654.202429	549.7447603	2720.710284 128 4417
5645.758302	558.7997013	2720.560038 128 4417
5640.832161	562.2338816	2720.502647 128 4417
5656.492281	531.6429906	2720.982994 128 4417
5656.216029	537.5088549	2720.889592 128 4417
5652.621714	548.8441493	2720.704661 128 4417
5644.450637	557.4075768	2720.558437 128 4417
5639.709061	560.6278739	2720.502099 128 4417
5653.220371	531.516762	2722.009018 128 4417
5652.913355	536.8285976	2721.96052 128 4417
5649.465386	547.0650142	2721.913655 128 4417
5641.842407	554.6539656	2721.980369 128 4417
5637.470374	557.452356	2722.042242 128 4417
5651.118387	531.4681081	2724.720887 128 4417
5650.828652	536.4260471	2724.760245 128 4417
5647.608729	546.0100864	2724.996029 128 4417
5640.46788	553.2199287	2725.48269 128 4417
5636.354845	555.9194255	2725.767179 128 4417
5650.562359	531.4682684	2726.262785 128 4417
5650.298629	536.3332754	2726.341302 128 4417
5647.215734	545.7753549	2726.702887 128 4417
5640.271006	553.0188986	2727.355183 128 4417
5640.792027	562.1764956	2720.502955 126 4419
5641.14226	561.9316266	2720.507049 126 4419
5641.489617	561.6822858	2720.511215 126 4419
5641.820281	561.438247	2720.515291 126 4419
5642.462985	560.9529683	2720.523394 126 4419
5643.094453	560.4523984	2720.531744 126 4419
5643.414035	560.1932821	2720.536064 126 4419
5644.859315	558.9891446	2720.556128 126 4419
5646.238646	557.7039955	2720.577486 126 4419
5647.217326	556.7045476	2720.594055 126 4419
5649.057396	554.6752213	2720.62762 126 4419
5650.723888	552.4980827	2720.663452 126 4419
5651.531457	551.3529342	2720.682254 126 4419
5653.334215	548.5168203	2720.728679 126 4419
5654.83023	545.5009772	2720.77772 126 4419
5655.510556	543.8619939	2720.804255 126 4419
5656.665364	540.6451329	2720.856164 126 4419
5657.452762	537.308365	2720.9096 126 4419
5657.775511	535.5527061	2720.937621 126 4419
5657.987215	533.6403202	2720.967989 126 4419
5658.071186	531.7119729	2720.998461 126 4419
5658.071165	531.711972	2720.998461 126 4421
5656.453305	531.6414881	2720.995289 126 4421
5653.207838	531.5164719	2722.025188 126 4421
5651.118387	531.4681081	2724.720887 126 4421
5650.562359	531.4682684	2726.262785 126 4421
5650.562358	531.4682781	2726.262785 126 4423
5650.298627	536.3332817	2726.341302 126 4423
5647.215733	545.7753557	2726.702887 126 4423
5640.271009	553.0188961	2727.355183 126 4423
5636.235569	555.7814585	2727.718409 126 4423
5636.235569	555.7814656	2727.718349 126 4425
5636.354857	555.9194412	2725.767141 126 4425
5637.463741	557.4432417	2722.064421 126 4425
5639.682432	560.590104	2720.520524 126 4425
5640.792027	562.1764956	2720.502955 126 4425
1521.203705	0.01739524687	0.0 108 4431
1521.203705	10.9198179	0.0 108 4431
1521.203716	10.9198179	0.0 108 4433
1553.783954	10.9198179	0.0 108 4433
1553.783954	0.01732651966	0.0 108 4435
1553.783954	10.91976192	0.0 108 4435
5636.23557	555.7814682	2727.71835 126 4445
5636.651342	555.4957914	2727.680916 126 4445
5637.059689	555.2045229	2727.644085 126 4445
5637.460393	554.9079497	2727.607844 126 4445
5638.241638	554.308732	2727.536918 126 4445
5638.9902	553.6927037	2727.468483 126 4445
5639.357418	553.3799379	2727.434796 126 4445
5639.942517	552.8639263	2727.380826 126 4445
5640.505287	552.3394289	2727.328522 126 4445
5640.689308	552.1644485	2727.311361 126 4445
5640.978513	551.8840117	2727.284347 126 4445
5641.263215	551.599811	2727.2577 126 4445
5641.41214	551.4494924	2727.243753 126 4445
5641.585363	551.2727503	2727.227462 126 4445
5641.754383	551.0971853	2727.211552 126 4445
5641.822966	551.025434	2727.20515 126 4445
5641.978605	550.8608164	2727.190512 126 4445
5642.13437	550.6933015	2727.175797 126 4445
5642.17175	550.6528943	2727.172263 126 4445
5642.273017	550.5428818	2727.162695 126 4445
5642.37292	550.4331565	2727.153256 126 4445
5642.421118	550.3799387	2727.148702 126 4445
5642.565388	550.2198013	2727.135061 126 4445
5642.708507	550.0583977	2727.121495 126 4445
5642.803344	549.9502986	2727.112489 126 4445
5643.080345	549.6311742	2727.086136 126 4445
5643.351361	549.3089408	2727.060232 126 4445
5643.543365	549.0756335	2727.041838 126 4445
5643.893682	548.6406269	2727.00816 126 4445
5644.23275	548.2012052	2726.975326 126 4445
5644.401461	547.9777414	2726.958913 126 4445
5644.735282	547.525805	2726.926307 126 4445
5645.05787	547.0691335	2726.894574 126 4445
5645.209291	546.8499718	2726.879629 126 4445
5645.441033	546.5068138	2726.856714 126 4445
5645.665285	546.1632571	2726.83434 126 4445
5645.74199	546.0443878	2726.826662 126 4445
5645.883019	545.8233748	2726.812478 126 4445
5646.021235	545.6018607	2726.798549 126 4445
5646.090601	545.4894257	2726.791569 126 4445
5646.226424	545.266703	2726.777923 126 4445
5646.363785	545.0361477	2726.764086 126 4445
5646.440066	544.9065298	2726.756366 126 4445
5646.578923	544.6675939	2726.742238 126 4445
5646.715492	544.426663	2726.728224 126 4445
5646.769908	544.3294907	2726.722627 126 4445
5646.903659	544.0877798	2726.708872 126 4445
5647.033983	543.8460948	2726.69544 126 4445
5647.096539	543.7286076	2726.688986 126 4445
5647.346072	543.2539689	2726.663172 126 4445
5647.585248	542.7745993	2726.638109 126 4445
5647.770303	542.3878529	2726.618473 126 4445
5648.050027	541.7776249	2726.588436 126 4445
5648.311556	541.1638603	2726.559863 126 4445
5648.414227	540.915408	2726.548569 126 4445
5648.563798	540.5419265	2726.532001 126 4445
5648.706992	540.1665753	2726.515946 126 4445
5648.753959	540.0413994	2726.510658 126 4445
5648.848313	539.7856735	2726.499967 126 4445
5648.9393	539.5303251	2726.489518 126 4445
5648.975563	539.4268359	2726.485319 126 4445
5649.06056	539.1802189	2726.475427 126 4445
5649.143017	538.9322223	2726.465783 126 4445
5649.186558	538.7988558	2726.460689 126 4445
5649.304303	538.4313154	2726.446879 126 4445
5649.419419	538.0510171	2726.433117 126 4445
5649.494378	537.7927268	2726.423874 126 4445
5649.601372	537.4079395	2726.410623 126 4445
5649.701281	537.023636	2726.398031 126 4445
5649.733958	536.8949638	2726.393886 126 4445
5649.89382	536.2502967	2726.37341 126 4445
5650.035282	535.6019507	2726.35432 126 4445
5650.134735	535.0908031	2726.340166 126 4445
5650.312118	534.0542295	2726.313494 126 4445
5650.441208	533.0168101	2726.29077 126 4445
5650.493539	532.500139	2726.280439 126 4445
5650.533915	531.9838972	2726.271098 126 4445
5650.562375	531.4682781	2726.262738 126 4445
5650.562358	531.4682091	2726.262795 126 4447
5645.501559	533.3819079	2739.89747 126 4447
5640.439392	535.2963154	2753.527984 126 4447
5640.439392	535.2963813	2753.527975 126 4449
5640.410444	537.6790755	2753.275843 126 4449
5640.134407	540.0577269	2753.003722 126 4449
5639.614228	542.3994591	2752.706991 126 4449
5638.526618	545.6762191	2752.243211 126 4449
5636.999108	548.7260121	2751.736432 126 4449
5636.477211	549.6608532	2751.572962 126 4449
5635.163113	551.7868744	2751.180842 126 4449
5633.638374	553.7589308	2750.765934 126 4449
5632.688804	554.8450951	2750.517948 126 4449
5631.677328	555.8708323	2750.262312 126 4449
5630.608687	556.8320808	2749.999145 126 4449
5630.608758	556.8321072	2749.998656 126 4451
5630.314763	557.0965552	2749.926254 126 4451
5629.991076	557.3789154	2749.847161 126 4451
5629.63752	557.6760445	2749.761418 126 4451
5629.081136	558.1245945	2749.627331 126 4451
5628.480052	558.5787354	2749.48382 126 4451
5628.281781	558.7253354	2749.436624 126 4451
5627.975982	558.9464852	2749.364062 126 4451
5627.660979	559.1666694	2749.28966 126 4451
5627.558032	559.2378351	2749.26538 126 4451
5627.352093	559.3786019	2749.216879 126 4451
5627.142084	559.518938	2749.167558 126 4451
5627.027015	559.5949327	2749.140571 126 4451
5626.688561	559.8157812	2749.061311 126 4451
5626.341284	560.0341118	2748.98032 126 4451
5626.162242	560.1438669	2748.938664 126 4451
5625.715147	560.4118516	2748.834808 126 4451
5625.275623	560.662621	2748.733162 126 4451
5625.078414	560.7725594	2748.687656 126 4451
5624.43601	561.1225407	2748.539716 126 4451
5623.823302	561.4322451	2748.399503 126 4451
5623.421491	561.6252767	2748.307909 126 4451
5623.052935	561.794289	2748.224119 126 4451
5622.725038	561.9393874	2748.14955 126 4451
5622.724982	561.9394127	2748.149518 126 4453
5626.427555	560.5532395	2738.17833 126 4453
5630.129406	559.1675413	2728.20492 126 4453
5630.129464	559.1675154	2728.204945 126 4455
5632.267758	558.2363444	2728.047673 126 4455
5634.315871	557.1004945	2727.89119 126 4455
5636.23557	555.7814682	2727.718349 126 4455
5650.70504	528.1479475	2726.315156 126 4479
5650.696871	528.3405225	2726.312127 126 4479
5650.688489	528.5377133	2726.309025 126 4479
5650.679665	528.7449035	2726.305763 126 4479
5650.650968	529.4175106	2726.295172 126 4479
5650.622095	530.0897767	2726.284569 126 4479
5650.602411	530.5459682	2726.277366 126 4479
5650.582477	531.0058072	2726.270097 126 4479
5650.56234	531.4682755	2726.262779 126 4479
5650.56234	531.4682755	2726.262779 126 4481
5651.231169	531.4683836	2724.427112 126 4481
5652.458942	531.4960306	2722.794272 126 4481
5654.16671	531.5514589	2721.597068 126 4481
5656.119297	531.6270352	2721.000369 126 4481
5658.071164	531.7119859	2720.998839 126 4481
5658.071184	531.7119788	2720.998839 126 4483
5658.091377	531.2484195	2721.006166 126 4483
5658.111366	530.7874938	2721.013442 126 4483
5658.131105	530.3302222	2721.020654 126 4483
5658.160061	529.6562958	2721.031269 126 4483
5658.18884	528.9820228	2721.041874 126 4483
5658.197692	528.7742828	2721.045139 126 4483
5658.2061	528.5765712	2721.048246 126 4483
5658.214294	528.3834887	2721.051279 126 4483
5658.214294	528.3834887	2721.051279 126 4485
5656.262318	528.3007224	2721.052761 126 4485
5654.309621	528.2272724	2721.649423 126 4485
5652.601758	528.1736374	2722.846604 126 4485
5651.373924	528.1472035	2724.47944 126 4485
5650.70507	528.1476632	2726.315113 126 4485
5650.787207	526.202524	2726.345655 126 4505
5650.785178	526.2507577	2726.3449 126 4505
5650.783004	526.3024338	2726.34409 126 4505
5650.780574	526.3601666	2726.343186 126 4505
5650.772236	526.5582453	2726.340083 126 4505
5650.76389	526.7563511	2726.336978 126 4505
5650.758253	526.8900436	2726.334881 126 4505
5650.744252	527.2219232	2726.329676 126 4505
5650.730223	527.5538487	2726.324465 126 4505
5650.721838	527.7520342	2726.321353 126 4505
5650.713451	527.950067	2726.318242 126 4505
5650.705066	528.1479482	2726.315133 126 4505
5650.705073	528.1479603	2726.315114 126 4507
5651.373925	528.1474741	2724.479443 126 4507
5652.601758	528.1738594	2722.846609 126 4507
5654.309619	528.2274268	2721.649427 126 4507
5656.262316	528.3007995	2721.052764 126 4507
5658.214292	528.3834886	2721.051277 126 4507
5658.214292	528.3834886	2721.051277 126 4509
5658.222682	528.1855402	2721.054386 126 4509
5658.23108	527.9873347	2721.057497 126 4509
5658.239479	527.7889014	2721.060611 126 4509
5658.25353	527.4565641	2721.065822 126 4509
5658.267553	527.1242885	2721.071029 126 4509
5658.273198	526.9904476	2721.073126 126 4509
5658.281552	526.7922315	2721.07623 126 4509
5658.289897	526.5940498	2721.079332 126 4509
5658.292327	526.5363239	2721.080235 126 4509
5658.294502	526.4846448	2721.081044 126 4509
5658.296532	526.4364168	2721.081799 126 4509
5658.296541	526.4360484	2721.081804 126 4511
5656.344529	526.3539589	2721.083278 126 4511
5654.391798	526.2811516	2721.679936 126 4511
5652.683909	526.2280399	2722.87712 126 4511
5651.456063	526.2019379	2724.509962 126 4511
5650.787211	526.202524	2726.345644 126 4511
5658.647842	518.0	2721.21274 126 4531
5656.693538	518.0000029	2721.212928 126 4531
5654.737097	517.9999832	2721.80876 126 4531
5653.029611	517.999766	2723.001902 126 4531
5651.798056	518.0000083	2724.636095 126 4531
5651.128787	518.0	2726.473042 126 4531
5651.128781	518.0	2726.47306 126 4533
5651.085637	519.0479951	2726.456909 126 4533
5651.042334	520.0959448	2726.440719 126 4533
5650.998873	521.1438432	2726.424488 126 4533
5650.933055	522.7249987	2726.399936 126 4533
5650.866889	524.3060049	2726.375294 126 4533
5650.838327	524.9868984	2726.364664 126 4533
5650.811629	525.6222428	2726.354733 126 4533
5650.787202	526.2025237	2726.345651 126 4533
5650.787204	526.202551	2726.345642 126 4535
5651.456055	526.2019952	2724.509958 126 4535
5652.6839	526.2281529	2722.877114 126 4535
5654.391787	526.2813423	2721.679929 126 4535
5656.344516	526.3542383	2721.083271 126 4535
5658.296526	526.4364165	2721.081797 126 4535
5658.296526	526.4364165	2721.081797 126 4537
5658.320977	525.8557517	2721.090881 126 4537
5658.347701	525.2199659	2721.100813 126 4537
5658.376292	524.5385895	2721.111445 126 4537
5658.444434	522.9108779	2721.136802 126 4537
5658.512208	521.2829837	2721.162063 126 4537
5658.557592	520.1887157	2721.178999 126 4537
5658.602804	519.094385	2721.195891 126 4537
5658.647842	518.0	2721.21274 126 4537
5730.498363	518.0	2721.212742 108 4555
5730.498345	518.0	2721.21274 126 4557
5730.498342	517.9976909	2721.062758 126 4557
5730.498339	517.9953818	2720.912776 126 4557
5730.49835	517.9930728	2720.762793 126 4557
5730.498347	517.9907637	2720.612811 126 4557
5730.498345	517.9884546	2720.462829 126 4557
5730.498345	517.9884491	2720.462829 108 4559
5658.647842	517.9884547	2720.462829 108 4559
5658.647842	517.9884547	2720.462829 108 4561
5658.647842	518.0	2721.21274 108 4561
5658.647842	518.0	2721.21274 108 4563
5730.498357	517.9999894	2721.212795 108 4563
5725.938172	550.0000108	2722.60846 126 4573
5728.691433	542.0777198	2722.736352 126 4573
5731.266552	534.0999567	2722.862693 126 4573
5733.659659	526.0725274	2722.987317 126 4573
5735.872005	518.0000037	2723.110095 126 4573
5735.871973	518.0000026	2723.110068 126 4575
5734.746177	518.0000925	2722.192846 126 4575
5733.40555	518.0007469	2721.539637 126 4575
5731.951069	517.9998798	2721.212672 126 4575
5730.498357	517.9999886	2721.212744 126 4575
5730.498354	517.9999975	2721.212744 126 4577
5728.100633	526.6421291	2721.079693 126 4577
5725.493267	535.2306645	2720.944506 126 4577
5722.674717	543.7609205	2720.807337 126 4577
5719.650423	552.2258765	2720.6684 126 4577
5719.650434	552.2258803	2720.668399 126 4579
5719.675919	552.2349808	2720.668249 126 4579
5719.701405	552.2440834	2720.66822 126 4579
5719.72689	552.2531879	2720.668314 126 4579
5719.752374	552.262294	2720.66853 126 4579
5719.752377	552.2622913	2720.66853 126 4581
5719.988688	551.9011501	2720.675822 126 4581
5720.265091	551.5658879	2720.684914 126 4581
5720.576105	551.2610258	2720.698673 126 4581
5721.24688	550.7304526	2720.744883 126 4581
5722.009843	550.3581802	2720.851454 126 4581
5722.409529	550.2162876	2720.925667 126 4581
5722.956594	550.0787468	2721.05941 126 4581
5723.499174	550.0168773	2721.24272 126 4581
5723.646443	550.0056175	2721.296523 126 4581
5723.792158	549.9999996	2721.354037 126 4581
5723.936268	549.9999997	2721.41541 126 4581
5723.936267	550.0000207	2721.415413 126 4583
5724.639067	550.0000386	2721.71472 126 4583
5725.317917	550.000114	2722.112878 126 4583
5725.938138	550.0000331	2722.608439 126 4583
5614.23624	552.3571634	2728.667322 108 4605
5615.23624	552.3571634	2728.667322 108 4605
5674.783101	552.225869	2720.668399 108 4607
5719.650436	552.225869	2720.668399 108 4607
5674.783101	552.3571634	2720.667322 108 4611
5719.650436	552.3571634	2720.667322 108 4611
5719.650436	552.2258758	2720.668399 108 4617
5674.783113	552.225869	2720.668399 108 4617
5674.783113	552.225868	2720.66834 126 4631
5674.511408	552.2258746	2720.66834 126 4631
5674.236982	552.2340875	2720.668205 126 4631
5673.9729	552.2507221	2720.667932 126 4631
5673.454609	552.2975611	2720.667163 126 4631
5672.931357	552.3767604	2720.665863 126 4631
5672.662395	552.4252233	2720.665068 126 4631
5672.087757	552.5501368	2720.663017 126 4631
5671.513693	552.7174276	2720.660269 126 4631
5671.076327	552.8508978	2720.658076 126 4631
5670.069862	553.2604964	2720.651345 126 4631
5669.104909	553.8111979	2720.642284 126 4631
5668.710647	554.0897016	2720.637698 126 4631
5668.258734	554.4194867	2720.632266 126 4631
5667.82839	554.7811901	2720.626303 126 4631
5667.588605	554.9897656	2720.622864 126 4631
5667.076558	555.4900434	2720.614609 126 4631
5666.610405	556.0331156	2720.605638 126 4631
5666.418079	556.2859573	2720.601457 126 4631
5666.120598	556.6903965	2720.594769 126 4631
5665.849738	557.110321	2720.587817 126 4631
5665.715006	557.334576	2720.584103 126 4631
5665.27977	558.1147319	2720.571176 126 4631
5664.935998	558.9277623	2720.557681 126 4631
5664.739438	559.5132498	2720.54795 126 4631
5664.588753	560.1011268	2720.538166 126 4631
5664.481204	560.6857327	2720.528424 126 4631
5664.481198	560.6857601	2720.528423 126 4633
5665.2617	560.8292679	2720.525839 126 4633
5666.831911	561.1219792	2720.76085 126 4633
5668.263563	561.3968681	2721.455607 126 4633
5668.915898	561.5243604	2721.906497 126 4633
5668.915908	561.524351	2721.906502 126 4635
5669.038068	560.8681694	2721.919338 126 4635
5669.396624	559.8878034	2721.938071 126 4635
5670.219631	558.7481373	2721.959544 126 4635
5670.986738	558.0196134	2721.973259 126 4635
5671.866122	557.4491091	2721.98401 126 4635
5673.133131	556.9170769	2721.994143 126 4635
5674.132243	556.7732838	2721.997024 126 4635
5674.783101	556.7738343	2721.997008 126 4635
5674.783115	556.7738229	2721.997001 126 4637
5674.783119	556.1015211	2721.551475 126 4637
5674.783127	554.669776	2720.889186 126 4637
5674.783135	553.1102817	2720.667179 126 4637
5674.783139	552.3571634	2720.667241 126 4637
5674.783139	552.3571634	2720.667241 126 4639
5674.783139	552.3133966	2720.667245 126 4639
5674.783139	552.2696295	2720.667611 126 4639
5674.78314	552.2258681	2720.66834 126 4639
5719.250139	553.2563824	2720.718053 126 4661
5719.250139	553.3406868	2719.972786 126 4661
5719.250139	553.3406883	2719.972772 126 4663
5719.357145	553.0260147	2719.937142 126 4663
5719.49144	552.7204811	2719.920046 126 4663
5719.650437	552.4311443	2719.917634 126 4663
5719.650437	552.4311443	2719.917634 126 4665
5719.650436	552.424803	2720.667608 126 4665
5719.650436	552.4248027	2720.667641 126 4667
5719.49144	552.6893381	2720.669846 126 4667
5719.357145	552.968682	2720.685477 126 4667
5719.250139	553.2563824	2720.718053 126 4667
5719.250141	553.3406846	2719.972772 126 4687
5719.205668	553.4714141	2719.98756 126 4687
5719.150104	553.6391315	2720.009021 126 4687
5719.086095	553.8341453	2720.039153 126 4687
5718.982935	554.1503093	2720.098502 126 4687
5718.872129	554.4893414	2720.179792 126 4687
5718.830747	554.6156838	2720.212497 126 4687
5718.76868	554.8046262	2720.265006 126 4687
5718.704318	554.9994555	2720.325294 126 4687
5718.683781	555.061513	2720.345181 126 4687
5718.634878	555.2088324	2720.394152 126 4687
5718.586662	555.3529148	2720.445597 126 4687
5718.567262	555.4106129	2720.466905 126 4687
5718.534673	555.506994	2720.503493 126 4687
5718.502612	555.6008204	2720.540664 126 4687
5718.493008	555.6288338	2720.551901 126 4687
5718.453462	555.7437605	2720.59858 126 4687
5718.413511	555.8581758	2720.647428 126 4687
5718.388085	555.9302276	2720.679299 126 4687
5718.267813	556.2672463	2720.833332 126 4687
5718.150851	556.578349	2720.996242 126 4687
5718.064072	556.7987721	2721.122456 126 4687
5717.979593	557.0028472	2721.249143 126 4687
5717.898343	557.1878901	2721.371667 126 4687
5717.898343	557.1878901	2721.371667 126 4689
5674.783099	557.1878901	2721.371667 126 4689
5674.783017	557.1878812	2721.371661 126 4691
5674.783017	554.9259881	2719.873981 126 4691
5674.783017	552.2135676	2719.9185 126 4691
5674.783113	552.2135676	2719.9185 126 4693
5719.650436	552.2135676	2719.9185 126 4693
5719.650436	552.2135676	2719.9185 126 4695
5719.650436	552.3223512	2719.916715 126 4695
5719.650436	552.4311456	2719.917634 126 4695
5719.650436	552.4311456	2719.917634 126 4697
5719.490839	552.7216584	2719.920091 126 4697
5719.35695	553.0267119	2719.937256 126 4697
5719.250141	553.3406846	2719.972772 126 4697
5614.23624	552.3571634	2728.667322 108 4719
5615.23624	552.3571634	2728.667322 108 4719
5674.783101	552.3571634	2720.667322 108 4721
5719.650436	552.3571634	2720.667322 108 4721
5719.650436	552.3571634	2720.667322 108 4725
5674.783101	552.3571634	2720.667322 108 4725
5674.783101	556.7738208	2721.997004 108 4731
5717.898344	556.7738275	2721.997008 108 4731
5717.898279	556.7738101	2721.996997 126 4733
5717.930172	556.6938726	2721.944068 126 4733
5717.962505	556.6125963	2721.891974 126 4733
5717.995297	556.5299486	2721.840743 126 4733
5718.087721	556.2964066	2721.700875 126 4733
5718.183713	556.0521559	2721.568385 126 4733
5718.235861	555.9189716	2721.500489 126 4733
5718.312697	555.7216911	2721.406635 126 4733
5718.390064	555.5219909	2721.319818 126 4733
5718.402842	555.4889795	2721.305686 126 4733
5718.429252	555.4207239	2721.276916 126 4733
5718.456261	555.3508516	2721.248421 126 4733
5718.467045	555.3229473	2721.237214 126 4733
5718.494527	555.251778	2721.209116 126 4733
5718.521857	555.1808556	2721.182086 126 4733
5718.536817	555.1419849	2721.167546 126 4733
5718.561369	555.0781216	2721.144098 126 4733
5718.582667	555.0226726	2721.124361 126 4733
5718.592437	554.9972407	2721.115434 126 4733
5718.611092	554.9487002	2721.098592 126 4733
5718.630678	554.8976846	2721.08136 126 4733
5718.642906	554.865792	2721.070743 126 4733
5718.676183	554.7789225	2721.042307 126 4733
5718.711191	554.6873053	2721.013757 126 4733
5718.729494	554.6393491	2720.999326 126 4733
5718.836649	554.3581801	2720.917488 126 4733
5718.951101	554.0556685	2720.843991 126 4733
5719.054843	553.7794477	2720.788383 126 4733
5719.151351	553.5215168	2720.748012 126 4733
5719.250182	553.2564001	2720.718022 126 4733
5719.25014	553.2563846	2720.71802 126 4735
5719.357168	552.9687366	2720.685481 126 4735
5719.491224	552.6897756	2720.669848 126 4735
5719.650436	552.4248044	2720.667608 126 4735
